4.9808,3.026,-0.30543
5.1369,3.1196,1.3875
4.4871,2.7239,-0.091625
5.2305,3.1739,1.6394
8.9598,5.4219,-2.8061
10.858,6.5653,-2.9293
4.8988,2.961,0.29999
5.2199,3.1538,0.53357
5.4517,3.2913,0.78191
4.8727,2.9406,-0.6988
5.71,3.4445,-0.58342
5.5616,3.3536,1.2624
5.2145,3.1419,1.4055
4.4521,2.6814,-0.090718
5.1456,3.0979,1.6093
8.9869,5.3956,-2.8087
10.877,6.5253,-2.9284
5.0891,3.0506,0.5191
5.4632,3.2722,0.78191
4.871,2.9164,-0.69709
5.7596,3.4471,-0.58726
5.2835,3.1608,1.1968
4.4992,2.6884,-0.091486
5.2094,3.1116,1.6259
9.0339,5.381,-2.8175
12.276,7.3096,0.24939
10.932,6.5063,-2.937
5.1322,3.0521,0.52241
4.8812,2.8994,-0.69709
5.4109,3.2115,1.2231
4.5639,2.7077,-0.27811
5.1827,3.0736,1.3911
9.0676,5.3583,-2.8222
11.008,6.4998,-2.9514
5.2976,3.1268,0.32239
5.0242,2.9618,0.7161
5.6285,3.3141,1.2696
4.5768,2.6938,-0.27832
5.2639,3.097,1.41
9.0996,5.3344,-2.8263
11.066,6.482,-2.9608
5.1258,3.0013,0.31129
5.2652,3.0816,0.53374
5.6112,3.2776,1.2632
4.7587,2.7785,-0.28879
5.3151,3.1021,1.4208
12.452,7.2645,-0.25163
9.1549,5.324,-2.8377
11.087,6.4423,-2.9604
4.7155,2.7346,-0.66931
5.5819,3.2344,1.254
4.8202,2.7919,-0.29193
5.4372,3.148,1.4505
12.524,7.248,-0.25257
9.1935,5.3036,-2.8439
11.075,6.3841,-2.9514
4.8674,2.8011,0.68954
4.7818,2.7508,-0.67735
5.6697,3.2589,1.2712
4.9407,2.8387,-0.29863
12.436,7.1395,-0.2503
9.2388,5.2868,-2.8522
11.194,6.4006,-2.977
4.9276,2.8118,-0.69661
4.6226,2.6367,-0.46559
5.7049,3.2527,1.2765
9.2706,5.2622,-2.8563
5.1285,2.911,0.10293
11.241,6.3778,-2.9838
5.5133,3.1231,0.77801
9.3133,5.2456,-2.8641
5.1421,2.8951,0.103
11.268,6.3414,-2.9851
4.915,2.7615,0.69222
5.4444,3.0527,1.441
11.958,6.7022,-0.23927
9.3956,5.2489,-2.8838
4.9986,2.7913,0.099932
11.329,6.3239,-2.9954
5.5783,3.1087,0.78411
5.4448,3.028,1.4383
9.4341,5.2273,-2.89
12.509,6.9283,0.2496
11.372,6.2956,-3.0008
12.326,6.8239,0.73836
4.8681,2.6907,0.68296
5.7819,3.1944,1.0462
4.4492,2.4571,-0.44467
4.5763,2.5252,-0.27393
5.1777,2.8559,-0.10321
9.4236,5.1785,-2.8812
11.435,6.2814,-3.0121
11.751,6.4521,0.70256
4.9327,2.7051,0.69076
4.5759,2.5053,-0.2734
4.921,2.6919,-0.097908
9.4288,5.1408,-2.8776
11.493,6.261,-3.0215
12.047,6.56,0.71889
5.5595,3.0236,0.77704
6.1882,3.3613,1.3689
4.6233,2.5102,-0.27571
4.5401,2.463,-0.090159
5.4292,2.9442,1.6549
9.4467,5.1078,-2.8776
12.193,6.59,0.24193
11.559,6.2449,-3.0332
11.915,6.4344,0.70968
5.0134,2.7017,0.902
4.4532,2.3998,-0.44258
4.6425,2.4998,-0.27633
4.7319,2.5457,-0.093789
5.4088,2.9087,1.6456
9.5462,5.1186,-2.9024
10.349,5.5447,-2.7107
5.0925,2.7214,0.91452
4.5143,2.4124,-0.44781
4.6477,2.4817,-0.27612
4.7407,2.5292,-0.093789
5.4872,2.9262,1.6663
9.6476,5.1297,-2.9278
12.429,6.6061,0.24569
10.334,5.4902,-2.7017
5.5142,2.9282,0.3272
5.8944,3.1235,1.0566
4.8607,2.5758,-0.48127
4.5981,2.4346,-0.27267
9.662,5.0942,-2.9267
10.312,5.4323,-2.6909
5.3512,2.8178,0.31695
12.001,6.3169,1.1865
5.9087,3.1048,1.0572
4.953,2.6015,-0.48947
4.6985,2.4668,-0.27811
12.291,6.4477,-0.24227
9.6618,5.0489,-2.921
5.0032,2.6145,0.098536
10.331,5.3963,-2.6909
5.492,2.8675,0.32469
10.465,5.4619,-2.2947
5.8898,3.0686,1.0519
4.985,2.5961,-0.49173
12.293,6.3936,-0.24186
5.6066,2.9149,1.6932
9.6982,5.0249,-2.9267
11.615,6.0154,0.22831
10.356,5.3611,-2.6922
12.114,6.2714,0.71491
10.446,5.4055,-2.2863
10.506,5.4316,-1.8731
5.8109,3.0018,1.0359
12.926,6.6714,2.8274
12.509,6.4506,-0.24566
5.6305,2.9024,1.6973
9.7234,4.9972,-2.9293
4.9715,2.5539,0.097559
10.363,5.3214,-2.6895
5.2022,2.6713,0.30648
10.461,5.3691,-2.2855
10.467,5.3679,-1.8631
10.557,5.4115,-1.4566
5.5888,2.8636,0.99461
4.5521,2.3315,-0.44746
12.507,6.3972,-0.24521
5.5765,2.8512,1.6782
9.7503,4.9701,-2.9324
12.552,6.3958,0.2459
10.386,5.2896,-2.6909
5.3112,2.7038,0.31234
10.484,5.337,-2.2867
10.476,5.3287,-1.8616
10.547,5.3602,-1.4527
12.365,6.2813,2.1967
10.617,5.3934,-1.0419
12.343,6.2595,-0.24158
9.802,4.9535,-2.9428
12.621,6.3753,0.24681
10.429,5.2656,-2.6972
12.18,6.1472,0.71501
10.516,5.3075,-2.2897
10.498,5.2938,-1.8622
12.331,6.2151,1.6954
10.561,5.3207,-1.452
12.955,6.5242,2.2974
10.586,5.3312,-1.037
4.9314,2.4813,-0.28931
11.715,5.8894,-0.22887
9.84,4.9297,-2.949
5.1728,2.5903,0.10098
10.478,5.2449,-2.7053
5.2585,2.631,0.30815
10.552,5.2748,-1.8685
10.558,5.2731,-1.449
5.5478,2.7696,0.9821
10.578,5.2809,-1.0344
10.629,5.3017,-0.62248
12.56,6.2597,-0.24496
9.8485,4.891,-2.9464
5.1137,2.5385,0.099653
10.601,5.2603,-2.7323
5.2837,2.6206,0.3091
10.608,5.2521,-1.4534
5.5362,2.7398,0.97834
10.602,5.2466,-1.0349
10.628,5.2548,-0.62133
10.7,5.2858,-0.20831
9.8655,4.8566,-2.9464
10.731,5.2805,0.20877
12.446,6.1159,1.2132
10.764,5.2851,1.4724
10.648,5.2236,-1.0377
10.655,5.2221,-0.62186
10.715,5.2467,-0.20824
9.9136,4.8373,-2.9557
10.714,5.2255,0.20807
11.931,5.8164,-3.0643
10.785,5.2556,0.62876
12.533,6.1047,1.2197
10.735,5.2241,1.4658
13.226,6.4308,2.3293
4.5172,2.1963,-0.43944
12.955,6.2964,2.7999
10.702,5.1988,-0.62353
10.715,5.2005,-0.20789
9.9287,4.8019,-2.9552
10.743,5.1933,0.20828
11.932,5.7654,-3.0593
10.785,5.2092,0.62772
10.823,5.225,1.0514
10.724,5.1728,1.4619
12.852,6.1909,-1.2481
12.76,6.144,-0.74223
10.756,5.1744,-0.20835
12.73,6.1213,3.785
9.9236,4.7546,-2.9485
5.2316,2.5066,0.10126
11.953,5.7245,-3.0598
10.807,5.1733,0.62793
12.73,6.0909,-2.7431
10.804,5.1672,1.0478
10.726,5.1276,1.4598
10.968,5.2384,1.9251
12.363,5.9022,-1.1986
5.4928,2.6211,1.183
12.931,6.1677,-0.75081
12.785,6.0953,3.2699
11.655,5.5567,-0.22538
9.9367,4.7183,-2.9474
13.392,6.3561,0.25875
11.992,5.689,-3.0643
10.833,5.1371,0.62835
12.747,6.0447,-2.7423
10.828,5.132,1.0483
12.794,6.0615,-2.2423
10.745,5.0882,1.4598
10.883,5.1492,1.9069
5.5036,2.6027,1.1834
5.0324,2.3788,-0.29172
12.977,6.1314,3.3135
11.713,5.5319,-0.22611
13.034,6.1529,3.8621
10.013,4.7098,-2.965
12.292,5.779,-3.1358
13.145,6.1772,0.76117
10.877,5.1067,1.0513
12.797,6.0053,-2.2389
10.746,5.0431,1.4576
12.877,6.0402,-1.7464
10.887,5.1044,1.9044
12.439,5.8296,-1.2019
12.87,6.0287,2.7625
5.1497,2.4112,-0.298
12.913,6.0433,3.2915
11.816,5.53,-0.22772
10.051,4.6889,-2.9718
12.485,5.822,0.24046
12.504,5.8279,-3.1849
5.2541,2.4467,0.50707
12.83,5.9718,-2.2414
10.761,5.0066,1.4573
12.888,5.9933,-1.7452
12.795,5.9476,2.2348
12.515,5.8174,-1.2075
12.878,5.9833,2.7602
5.025,2.3336,-0.29036
12.914,5.9945,3.287
13.367,6.202,-0.25721
10.102,4.67,-2.9821
13.235,6.1155,0.25449
12.54,5.7916,-3.1889
12.918,5.9637,0.74568
12.828,5.9193,1.236
10.795,4.9765,1.4595
12.873,5.9317,-1.7403
12.83,5.9095,2.2373
12.84,5.9137,-1.2367
5.8137,2.6765,1.2441
5.0077,2.3043,-0.28889
12.084,5.5555,-0.23215
13.127,6.0321,3.8709
10.106,4.6291,-2.9785
12.02,5.5032,0.23076
12.579,5.7567,-3.1939
11.832,5.4146,0.68194
12.477,5.7047,1.2003
10.836,4.9495,1.4627
12.659,5.777,-1.2174
5.8212,2.6553,1.2437
5.0775,2.315,-0.29245
12.081,5.5055,-0.23173
10.128,4.5962,-2.98
12.829,5.822,0.2459
12.618,5.7238,-3.1988
12.788,5.7926,1.2282
10.908,4.9389,1.4702
12.287,5.5582,2.136
12.802,5.7886,-1.2292
5.6726,2.5648,1.2101
12.358,5.585,-0.71072
12.758,5.7633,3.2321
12.114,5.4698,-0.23201
10.181,4.58,-2.9914
12.955,5.8247,0.24793
12.649,5.6845,-3.2015
13.026,5.8516,0.7484
12.881,5.7836,1.2353
10.99,4.9301,1.479
12.142,5.4316,-0.23219
10.245,4.5657,-3.0054
12.683,5.6467,-3.2051
12.981,5.7769,0.74464
5.4813,2.4381,0.52485
13.221,5.8752,1.7764
12.993,5.7684,-1.2437
5.6886,2.5244,1.2097
12.471,5.5318,-0.71501
12.865,5.7011,-0.24563
10.287,4.5416,-3.0132
12.697,5.6,-3.2038
13.076,5.7645,0.74893
5.3548,2.3595,0.51195
13.15,5.789,1.7642
13.455,5.9175,2.3281
5.683,2.4982,1.2067
12.363,5.432,-0.70769
12.85,5.6409,-0.24496
10.347,4.525,-3.0261
12.79,5.5876,-3.2222
13.116,5.7276,0.75008
5.3667,2.3424,0.5123
5.6808,2.4736,1.2044
12.927,5.6207,-0.24604
10.411,4.5096,-3.0401
12.367,5.3541,0.23522
12.838,5.5553,-3.2294
13.194,5.7095,0.75343
5.2688,2.2778,0.50219
13.522,5.8376,2.3328
12.591,5.4332,-1.1998
12.384,5.3385,-0.70674
13.199,5.687,-0.25086
10.452,4.4839,-3.0473
12.572,5.3935,0.23878
12.834,5.5035,-3.224
13.32,5.7091,0.7595
5.2657,2.2547,0.50115
5.4713,2.3416,0.73073
12.914,5.5191,-1.2287
5.8528,2.5013,1.2372
12.793,5.4645,-0.72904
12.887,5.4996,-0.24458
10.497,4.462,-3.0561
12.038,5.115,0.22831
12.843,5.4541,-3.2213
12.038,5.11,0.68539
5.2878,2.2435,0.50254
13.121,5.5614,1.7498
12.665,5.3629,-1.2033
5.8814,2.4892,1.2414
12.863,5.4416,-0.73197
10.514,4.4261,-3.0567
12.639,5.318,0.23934
12.794,5.3805,-3.2042
5.4536,2.2914,0.51753
13.093,5.4956,1.7435
12.87,5.397,2.2104
12.761,5.351,-1.2106
13.471,5.6404,3.3716
12.243,5.1239,-0.23166
10.585,4.4124,-3.0727
12.749,5.3123,0.24109
12.818,5.3381,-3.2056
5.6106,2.3343,0.53165
13.083,5.4377,1.7396
12.986,5.3921,2.227
12.66,5.2567,-1.1993
13.037,5.4083,-0.73972
13.51,5.5986,-0.25526
10.653,4.3976,-3.0882
11.999,4.9505,0.22657
12.937,5.3349,-3.2307
12.571,5.1815,0.71261
5.6168,2.3139,0.53148
12.676,5.2118,-1.1991
13.535,5.5537,-0.25536
10.737,4.3881,-3.1079
13.078,5.3398,-3.2613
12.537,5.1187,0.70968
13,5.2947,2.2232
13.082,5.3201,-0.74014
13.54,5.5035,-0.25512
10.749,4.3518,-3.1074
13.105,5.3001,-3.2636
11.965,4.839,0.67639
12.36,4.9939,1.1663
12.26,4.9483,1.6233
13.008,5.2479,2.2217
12.93,5.2111,2.7099
12.928,5.2073,-0.7304
13.64,5.4915,-0.25666
10.789,4.3262,-3.1146
13.142,5.2646,-3.2685
13.702,5.4861,0.77353
12.327,4.9329,1.1616
13.012,5.1966,2.2192
12.897,5.1479,2.6992
13.006,5.1888,-0.73385
12.24,4.8782,-0.22999
10.904,4.3284,-3.1436
13.173,5.2237,-3.2717
12.784,5.059,1.6881
12.974,5.1236,-0.73103
10.932,4.2953,-3.1472
12.108,4.7548,0.22706
13.202,5.1819,-3.2744
12.677,4.9731,0.71365
12.312,4.8225,1.6235
13.049,5.1035,2.7236
13.075,5.111,-0.73574
12.303,4.8043,-0.23055
10.978,4.2671,-3.156
13.701,5.3254,0.25659
13.229,5.1394,-3.2766
12.973,5.0372,0.72935
5.4564,2.1153,0.71854
11.008,4.2343,-3.1602
13.818,5.3124,0.2584
13.245,5.0894,-3.2757
12.045,4.6259,0.67618
13.445,5.1558,1.7681
12.376,4.7407,2.099
11.026,4.1972,-3.1612
13.795,5.2485,0.25763
13.29,5.0536,-3.2825
12.087,4.5937,0.67765
13.707,5.196,2.3218
13.283,5.0272,3.2789
11.003,4.1444,-3.1503
13.338,5.0188,-3.2901
10.876,4.0533,-3.11
13.394,4.9865,-3.2996
12.728,4.7337,1.1881
10.791,3.983,-3.082
12.328,4.548,0.22936
13.426,4.9505,-3.3036
10.802,3.9421,-3.081
13.294,4.8518,0.24702
13.408,4.8909,-3.2951
13.591,4.9415,2.2905
10.833,3.9109,-3.0862
13.404,4.8338,-3.2897
13.694,4.9355,0.76285
13.254,4.7588,-0.73804
10.862,3.8783,-3.0903
13.173,4.6986,-3.2289
10.884,3.8436,-3.0929
13.956,4.9256,0.25833
13.21,4.6597,-3.2339
13.979,4.9312,0.77688
10.923,3.8145,-3.1001
13.238,4.6204,-3.237
10.957,3.7858,-3.1063
13.755,4.7496,0.254
13.276,4.5817,-3.2424
14.016,4.8316,1.2971
10.98,3.7487,-3.1089
13.327,4.5473,-3.251
14.037,4.7814,1.2974
11.012,3.7166,-3.1141
13.412,4.5215,-3.2676
11.032,3.6806,-3.1162
13.448,4.4814,-3.2726
11.05,3.6438,-3.1177
13.478,4.4393,-3.2762
11.083,3.6118,-3.1234
13.505,4.3959,-3.2789
11.114,3.579,-3.1286
13.552,4.3588,-3.2865
11.145,3.5461,-3.1338
13.594,4.3227,-3.2933
11.168,3.5126,-3.1369
13.643,4.2858,-3.3014
11.202,3.4805,-3.1431
13.68,4.2451,-3.3068
11.24,3.4493,-3.1503
13.711,4.2024,-3.3108
11.273,3.4187,-3.1566
13.751,4.1648,-3.3171
11.3,3.3857,-3.1607
13.808,4.1321,-3.3275
11.322,3.3496,-3.1638
13.833,4.0872,-3.3302
11.349,3.3143,-3.1679
13.866,4.0443,-3.3347
11.383,3.2791,-3.1742
13.89,3.9986,-3.3369
11.417,3.2457,-3.1804
13.936,3.9567,-3.3446
11.436,3.2059,-3.1824
13.986,3.918,-3.3531
11.462,3.1721,-3.1866
14.027,3.8769,-3.3599
11.499,3.1392,-3.1938
14.063,3.8365,-3.3653
11.531,3.1071,-3.2
14.087,3.7905,-3.368
11.565,3.0728,-3.2063
14.125,3.7478,-3.3738
11.59,3.0363,-3.2104
11.623,3.0016,-3.2166
11.649,2.9649,-3.2207
11.678,2.9289,-3.2259
11.714,2.8946,-3.2332
11.731,2.8576,-3.2352
11.759,2.8231,-3.2404
11.777,2.7839,-3.2425
11.813,2.7489,-3.2497
11.841,2.7119,-3.2549
11.869,2.6769,-3.2601
11.878,2.6355,-3.2601
11.91,2.5989,-3.2663
11.938,2.5593,-3.2715
11.966,2.5216,-3.2766
11.978,2.4806,-3.2777
11.998,2.4432,-3.2808
12.029,2.4058,-3.287
12.049,2.3661,-3.2901
12.087,2.3298,-3.2984
12.106,2.2919,-3.3015
12.126,2.2517,-3.3046
12.149,2.2122,-3.3087
12.183,2.1745,-3.316
12.208,2.135,-3.3206
12.232,2.0953,-3.3253
12.247,2.0538,-3.3274
12.277,2.0148,-3.3336
12.307,1.9756,-3.3398
12.338,1.9366,-3.3465
12.328,1.8908,-3.3419
12.296,1.8421,-3.3315
12.314,1.803,-3.3346
12.352,1.7646,-3.3434
12.389,1.7257,-3.3517
10.982,1.4907,-2.9697
11.175,1.513,-2.6036
10.761,1.4225,-2.9086
10.98,1.4475,-2.5568
11.188,1.473,-2.1935
10.553,1.3594,-2.8512
10.758,1.382,-2.5042
11.035,1.4156,-2.1626
10.523,1.3201,-2.8418
10.558,1.3207,-2.4565
10.841,1.3542,-2.1237
10.532,1.2838,-2.8429
10.559,1.2833,-2.4556
10.635,1.2908,-2.0825
10.536,1.247,-2.8429
10.576,1.2481,-2.4587
10.609,1.25,-2.0764
10.537,1.2098,-2.8418
10.592,1.2143,-2.4614
10.625,1.2143,-2.0787
10.56,1.177,-2.847
10.604,1.1782,-2.4632
10.636,1.1799,-2.0802
10.966,1.2126,-1.7474
10.579,1.1418,-2.8512
10.602,1.1424,-2.4619
10.656,1.1445,-2.0833
10.915,1.1703,-1.7386
10.589,1.1055,-2.8527
10.597,1.1025,-2.4596
10.658,1.107,-2.0829
10.876,1.1258,-1.7317
10.598,1.0691,-2.8543
10.622,1.0677,-2.4646
10.664,1.07,-2.0833
10.864,1.0863,-1.7292
10.602,1.0321,-2.8543
10.643,1.0323,-2.4686
10.683,1.0343,-2.0863
10.852,1.0468,-1.7267
10.617,0.99615,-2.8574
10.648,0.99531,-2.4691
10.698,0.99812,-2.0886
10.84,1.0075,-1.7242
10.628,0.95977,-2.8594
10.656,0.95848,-2.47
10.712,0.96164,-2.0905
10.847,0.96998,-1.7248
10.641,0.9235,-2.862
10.667,0.92195,-2.4718
10.711,0.92391,-2.0897
10.862,0.93312,-1.7267
10.642,0.88619,-2.8615
10.679,0.88552,-2.474
10.722,0.88716,-2.0913
10.883,0.89666,-1.7295
10.649,0.84934,-2.8625
10.69,0.84886,-2.4758
10.737,0.85066,-2.0936
10.904,0.86007,-1.7324
10.662,0.8129,-2.8651
10.693,0.81153,-2.4758
10.748,0.81377,-2.0951
10.944,0.82482,-1.7383
10.674,0.77638,-2.8677
10.698,0.77621,-2.4763
10.766,0.77738,-2.0981
11.006,0.79277,-1.7477
14.908,1.0608,-0.78326
10.681,0.74124,-2.8688
10.718,0.74007,-2.4803
10.765,0.7414,-2.0974
10.695,0.70472,-2.8719
10.728,0.70316,-2.4821
10.779,0.70459,-2.0997
10.693,0.66715,-2.8708
10.746,0.66668,-2.4857
10.793,0.66769,-2.102
10.73,0.63186,-2.8801
10.741,0.62871,-2.4839
10.811,0.63093,-2.105
10.736,0.59461,-2.8812
10.749,0.59153,-2.4853
11.197,0.61427,-2.1798
14.222,0.76277,-0.74642
10.754,0.55793,-2.8853
10.766,0.55481,-2.4889
11.431,0.58706,-2.2248
10.752,0.52021,-2.8843
10.784,0.51797,-2.4925
11.448,0.54791,-2.2279
10.755,0.48276,-2.8848
10.787,0.48042,-2.4929
10.771,0.44577,-2.8884
10.791,0.44284,-2.4934
10.778,0.40839,-2.89
10.792,0.40517,-2.4934
14.576,0.52685,-0.76442
10.797,0.37136,-2.8946
10.809,0.36802,-2.497
13.317,0.43477,-0.69827
10.794,0.33356,-2.8936
10.828,0.33272,-2.501
10.797,0.29781,-2.8941
10.843,0.29529,-2.5042
10.808,0.26036,-2.8967
10.844,0.25933,-2.5042
13.358,0.30081,-0.70026
10.81,0.22267,-2.8972
10.841,0.21951,-2.5033
14.819,0.28453,-1.2967
13.341,0.25151,-0.69931
10.823,0.18513,-2.9003
10.851,0.18183,-2.5055
14.466,0.21716,-0.25254
10.819,0.1473,-2.8993
10.863,0.1441,-2.5082
13.351,0.15846,-0.69973
13.543,0.15601,-0.23641
10.818,0.10951,-2.8988
10.86,0.10615,-2.5073
13.028,0.11369,-1.1398
13.205,0.11064,-0.69209
14.411,0.11571,-0.25156
10.83,0.071825,-2.9019
10.866,0.068278,-2.5087
13.008,0.068117,-1.1381
14.849,0.072569,-0.77824
14.376,0.067751,-0.25093
10.84,0.03406,-2.9045
10.86,0.032225,-2.5073
12.925,0.02256,-1.1308
13.256,0.020819,-0.69471
14.344,0.017528,-0.25037
10.843,-0.0018925,-2.9055
10.874,-0.0056936,-2.5105
13.058,-0.020512,-1.1424
14.412,-0.030184,-0.25156
10.836,-0.037824,-2.9034
10.872,-0.041745,-2.51
14.709,-0.061611,-2.8591
12.893,-0.065256,-1.128
14.438,-0.075598,-0.75667
10.832,-0.07562,-2.9024
10.885,-0.079795,-2.5132
14.504,-0.10885,-2.8194
14.251,-0.12934,-0.24877
10.835,-0.11536,-2.9034
10.887,-0.11781,-2.5136
14.435,-0.16125,-2.806
13.262,-0.15972,-1.1604
13.508,-0.1674,-0.708
10.844,-0.15332,-2.906
10.869,-0.15746,-2.5096
14.295,-0.20959,-2.7789
13.405,-0.20825,-1.1729
14.548,-0.23616,-0.25397
10.851,-0.19131,-2.9081
10.911,-0.19617,-2.5195
14.17,-0.25724,-2.7549
13.167,-0.25053,-1.1522
10.847,-0.2291,-2.9071
10.887,-0.23375,-2.5141
14.128,-0.30581,-2.7469
13.579,-0.30577,-1.1883
14.259,-0.32607,-0.74746
10.842,-0.26687,-2.906
10.892,-0.2719,-2.5154
13.974,-0.35128,-2.7171
13.444,-0.3497,-1.1766
14.693,-0.38731,-0.77028
10.847,-0.30488,-2.9076
10.889,-0.30986,-2.515
13.761,-0.39399,-2.6759
13.927,-0.4109,-1.219
12.827,-0.38293,-0.67252
10.844,-0.34268,-2.9071
10.87,-0.34731,-2.5109
13.585,-0.43641,-2.6419
13.977,-0.46122,-1.2235
12.801,-0.4269,-0.67126
10.85,-0.3808,-2.9091
10.885,-0.38581,-2.5145
13.497,-0.48075,-2.6252
12.834,-0.47283,-0.67304
10.847,-0.4167,-2.9086
10.883,-0.4219,-2.5145
13.46,-0.52413,-2.6183
10.836,-0.45227,-2.906
10.886,-0.45815,-2.5154
13.581,-0.57398,-2.6423
13.673,-0.5898,-1.1973
14.403,-0.62631,-0.75552
14.286,-0.62624,-0.2496
10.836,-0.49018,-2.9065
10.886,-0.49624,-2.5159
13.573,-0.62112,-2.6412
12.95,-0.60393,-1.1342
14.444,-0.68367,-0.2524
10.844,-0.52847,-2.9091
10.869,-0.53347,-2.5123
13.356,-0.65787,-2.5992
12.9,-0.64899,-1.1301
13.383,-0.67559,-0.70224
14.663,-0.74535,-0.25627
10.838,-0.56801,-2.9081
10.869,-0.57151,-2.5127
13.467,-0.71283,-2.6213
14.891,-0.80128,-1.3047
13.065,-0.70757,-0.68571
14.335,-0.77885,-0.25058
10.83,-0.60552,-2.9065
10.88,-0.6121,-2.5159
13.386,-0.75541,-2.6061
13.194,-0.75844,-1.1562
13.084,-0.75443,-0.68686
14.288,-0.82883,-0.24981
10.818,-0.64463,-2.9039
10.874,-0.64985,-2.515
13.406,-0.80588,-2.6106
14.09,-0.85931,-1.235
13.622,-0.83552,-0.71522
14.54,-0.89442,-0.25428
10.826,-0.67922,-2.9065
10.87,-0.68578,-2.5145
13.245,-0.83795,-2.5797
14.22,-0.91211,-1.2467
13.507,-0.87111,-0.70936
10.818,-0.71662,-2.905
10.852,-0.72079,-2.5109
13.213,-0.88222,-2.574
14.104,-0.95408,-1.2367
13.779,-0.93455,-0.72381
14.474,-0.98675,-0.25323
10.821,-0.7529,-2.9065
13.559,-0.94576,0.23725
10.857,-0.75921,-2.5127
13.237,-0.92795,-2.5794
14.756,-1.0577,-0.25823
10.809,-0.79185,-2.9039
10.853,-0.79696,-2.5123
13.21,-0.97473,-2.5748
13.711,-1.0237,-1.2029
13.49,-1.0119,-0.70894
10.794,-0.82868,-2.9008
10.853,-0.83703,-2.5132
13.222,-1.022,-2.5778
13.827,-1.0809,-1.2134
14.902,-1.1728,-0.26091
10.791,-0.86636,-2.9008
13.592,-1.0912,0.23802
10.843,-0.87239,-2.5114
13.25,-1.0707,-2.5839
13.724,-1.1211,-1.2047
13.93,-1.1404,-0.73249
14.915,-1.2263,-0.26123
10.79,-0.9023,-2.9014
14.808,-1.2408,0.25938
10.832,-0.90958,-2.5096
13.307,-1.1198,-2.5958
13.811,-1.1743,-1.2127
13.57,-1.1586,-0.71376
14.929,-1.2799,-0.26154
10.785,-0.93979,-2.9008
10.823,-0.94688,-2.5082
13.328,-1.1684,-2.6007
13.498,-1.1999,-0.7102
12.855,-1.1473,-0.22528
10.778,-0.97708,-2.8998
10.827,-0.98536,-2.51
13.272,-1.2101,-2.5904
12.696,-1.1688,-1.1154
13.017,-1.2029,-0.68508
10.757,-1.0131,-2.8951
10.822,-1.023,-2.5096
13.236,-1.2535,-2.5843
13.21,-1.2604,-1.6294
12.977,-1.2449,-0.68319
10.759,-1.0512,-2.8967
12.488,-1.2223,0.21903
10.808,-1.0598,-2.5073
13.331,-1.3095,-2.6038
13.918,-1.3794,-1.2237
12.95,-1.288,-0.68204
13.069,-1.3045,-0.22925
10.748,-1.088,-2.8946
10.789,-1.0959,-2.5037
13.36,-1.3594,-2.6103
13.777,-1.414,-1.2116
12.646,-1.3023,-0.66624
13.037,-1.3472,-0.22877
10.748,-1.1259,-2.8957
10.778,-1.1328,-2.5019
13.456,-1.4167,-2.6301
13.795,-1.4646,-1.2137
13.022,-1.3916,-0.22859
10.729,-1.1617,-2.8915
10.785,-1.1716,-2.5046
13.365,-1.4543,-2.6133
12.442,-1.3692,-0.65598
12.888,-1.4228,-0.22632
10.709,-1.1974,-2.8874
10.764,-1.2073,-2.5006
13.345,-1.4992,-2.6103
14.434,-1.6344,-1.2709
12.411,-1.4097,-0.65462
12.974,-1.4759,-0.22793
10.707,-1.235,-2.8879
10.748,-1.2417,-2.4979
13.119,-1.5202,-2.5671
13.255,-1.5477,-1.1675
12.507,-1.4627,-0.65996
13.503,-1.5839,-0.23732
10.697,-1.2698,-2.8864
10.744,-1.2792,-2.4979
13.212,-1.5872,-1.1642
12.92,-1.5612,-0.22716
10.694,-1.3074,-2.8869
10.724,-1.3148,-2.4943
14.128,-1.7447,-1.7479
10.678,-1.3433,-2.8838
10.717,-1.352,-2.4938
14.131,-1.7952,-1.7491
12.75,-1.622,-1.1245
13.49,-1.7257,-0.23739
10.656,-1.3783,-2.8791
10.712,-1.3894,-2.4938
14.275,-1.8641,-1.7676
13.495,-1.7647,-1.1907
12.735,-1.6699,-0.67315
12.532,-1.6477,-0.22063
10.649,-1.4153,-2.8786
10.692,-1.4247,-2.4902
14.486,-1.9329,-2.8408
14.387,-1.9247,-2.299
13.485,-1.8113,-1.1904
12.733,-1.7148,-0.67335
12.707,-1.7158,-0.22381
10.627,-1.4501,-2.8739
10.677,-1.4607,-2.488
14.454,-1.9799,-2.8358
14.37,-1.9736,-2.2974
12.773,-1.7656,-0.67576
13.186,-1.8274,-0.23236
10.624,-1.4874,-2.8744
10.655,-1.4955,-2.4839
14.431,-2.0282,-2.8328
14.422,-2.032,-2.3068
14.394,-2.0332,-1.7849
14.318,-2.025,-1.2652
12.921,-1.832,-0.68393
12.469,-1.7723,-0.21983
10.601,-1.522,-2.8698
12.373,-1.7786,0.21819
10.647,-1.5324,-2.4835
14.436,-2.0802,-2.835
14.397,-2.0848,-1.7861
13.935,-2.0204,-1.2319
12.863,-1.8696,-0.6812
13.741,-2.0021,-0.24238
10.577,-1.5562,-2.8646
10.642,-1.5696,-2.4835
13.452,-1.9985,-1.1899
12.625,-1.8801,-0.66896
13.372,-1.9937,-0.23599
10.575,-1.5937,-2.8656
10.623,-1.6028,-2.4803
14.555,-2.2038,-2.3315
13.132,-1.993,-1.6309
12.09,-1.8393,-1.0699
12.42,-1.8916,-0.65839
13.442,-2.0521,-0.23735
10.564,-1.6279,-2.8641
10.598,-1.6369,-2.4758
14.539,-2.2534,-2.3302
11.97,-1.8616,-1.0598
14.105,-2.2012,-0.24919
10.553,-1.6638,-2.8625
10.591,-1.6717,-2.4754
14.543,-2.3034,-2.3321
12.965,-2.0581,-1.6118
13.378,-2.1284,-1.1851
12.351,-1.9673,-0.65546
13.825,-2.207,-0.24437
10.536,-1.697,-2.8594
14.69,-2.3687,0.25973
10.573,-1.7068,-2.4727
13.663,-2.2228,-1.2111
14.059,-2.2897,-0.74652
13.695,-2.2352,-0.2422
10.51,-1.7324,-2.8543
14.686,-2.4206,0.2598
10.565,-1.7434,-2.4722
12.835,-2.1294,-1.5975
13.345,-2.2188,-1.1836
14.09,-2.3478,-0.74861
13.584,-2.2659,-0.24039
10.499,-1.7682,-2.8527
10.547,-1.7802,-2.4695
12.847,-2.1797,-1.5999
13.355,-2.2684,-1.1851
10.477,-1.8022,-2.8486
10.528,-1.8147,-2.4664
13.416,-2.3269,-1.1912
12.661,-2.2052,-0.22433
10.465,-1.8377,-2.847
10.508,-1.849,-2.4632
13.621,-2.4116,-1.2102
14.429,-2.5597,-0.76798
10.455,-1.8718,-2.846
14.205,-2.5457,0.25191
10.488,-1.8815,-2.4601
12.974,-2.3368,-1.6187
14.42,-2.6076,-0.76798
12.647,-2.2891,-0.22433
10.428,-1.9026,-2.8403
13.926,-2.5432,0.24709
10.476,-1.9152,-2.4587
13.738,-2.5288,-1.2221
14.116,-2.6035,-0.75228
14.298,-2.6397,-0.25379
10.406,-1.938,-2.8361
10.46,-1.9518,-2.4565
12.899,-2.4186,-1.6114
13.774,-2.5876,-1.2261
13.679,-2.5747,-0.72946
10.387,-1.9739,-2.833
10.433,-1.9865,-2.452
13.626,-2.6142,-0.72716
10.374,-2.0091,-2.8315
14.133,-2.737,0.25128
10.4,-2.0159,-2.4457
12.566,-2.4471,-1.5719
13.351,-2.6073,-0.71292
13.728,-2.6858,-0.24416
10.341,-2.0382,-2.8242
10.393,-2.0522,-2.4457
12.413,-2.4624,-1.5538
12.265,-2.4396,-0.65535
13.708,-2.7317,-0.24398
10.315,-2.0705,-2.8191
10.38,-2.0873,-2.4443
14.101,-2.8484,-1.7664
13.518,-2.733,-1.2066
12.256,-2.4824,-0.65535
10.296,-2.1042,-2.816
13.939,-2.8512,0.24835
10.349,-2.1188,-2.4389
13.758,-2.8316,-1.2289
10.278,-2.1378,-2.8128
10.325,-2.1513,-2.4349
12.62,-2.641,-1.5831
13.715,-2.8727,-1.2259
10.266,-2.1728,-2.8118
12.8,-2.7114,0.22838
10.315,-2.187,-2.4344
10.242,-2.2032,-2.8072
10.287,-2.2166,-2.4295
10.208,-2.2314,-2.7999
10.268,-2.2482,-2.4268
12.674,-2.7865,-1.5933
12.828,-2.8252,-1.1492
10.193,-2.2671,-2.7978
10.238,-2.279,-2.4214
12.439,-2.7805,-1.565
14.096,-3.1612,-0.75709
10.164,-2.298,-2.7921
10.214,-2.313,-2.4178
12.417,-2.8234,-1.5636
12.99,-2.9585,-1.1656
14.03,-3.1979,-0.75416
13.832,-3.1578,-0.24765
10.138,-2.3313,-2.7875
10.187,-2.3443,-2.4133
13.092,-3.025,-1.6499
13.694,-3.1692,-1.2298
14.104,-3.2692,-0.75877
14.273,-3.3109,-0.25575
10.122,-2.361,-2.7849
10.168,-2.3754,-2.4106
13.673,-3.2094,-1.2287
14.188,-3.3408,-0.25442
10.087,-2.3901,-2.7776
10.152,-2.4091,-2.4088
13.253,-3.1573,-1.6728
14.09,-3.3645,-0.75919
10.056,-2.4198,-2.7714
10.122,-2.4395,-2.4038
12.86,-3.1111,-1.6245
14.556,-3.5295,-0.78493
10.029,-2.4503,-2.7663
10.082,-2.4669,-2.3962
13.047,-3.2047,-1.6496
14.006,-3.4428,-1.2618
14.483,-3.5654,-0.78169
10.02,-2.4853,-2.7663
10.048,-2.496,-2.3903
12.813,-3.1945,-1.6213
13.967,-3.4849,-1.2594
14.352,-3.5864,-0.7753
9.9852,-2.5137,-2.759
10.034,-2.5296,-2.389
14.266,-3.6179,-0.77133
9.9558,-2.5433,-2.7533
10.014,-2.5618,-2.3863
9.9375,-2.5756,-2.7507
9.9862,-2.5901,-2.3818
12.504,-3.2548,-1.5865
13.588,-3.542,-1.2285
9.9065,-2.6026,-2.7445
9.9545,-2.6189,-2.3764
13.565,-3.584,-1.2275
13.976,-3.7029,-0.25236
9.8862,-2.6342,-2.7414
9.9265,-2.6487,-2.3719
13.652,-3.6582,-1.2366
14.07,-3.7754,-0.76348
9.8508,-2.6616,-2.7342
9.9021,-2.6792,-2.3683
13.776,-3.7429,-1.2489
13.955,-3.7967,-0.75793
9.8116,-2.6878,-2.7259
9.8739,-2.7086,-2.3638
9.7873,-2.7179,-2.7217
9.8344,-2.7347,-2.3566
12.744,-3.5558,-1.6245
9.7461,-2.7432,-2.7129
9.791,-2.7595,-2.3485
9.7254,-2.774,-2.7098
9.7719,-2.791,-2.3462
13.353,-3.8289,-1.2153
13.522,-3.8826,-0.73731
9.6971,-2.8026,-2.7047
9.7378,-2.818,-2.3404
12.869,-3.7387,-1.1724
9.6538,-2.8266,-2.6953
9.7148,-2.8482,-2.3372
9.6272,-2.8554,-2.6907
9.6848,-2.8743,-2.3323
9.5992,-2.8817,-2.6855
9.6411,-2.898,-2.3242
12.751,-3.8449,-1.6352
9.5743,-2.9107,-2.6814
9.6085,-2.9248,-2.3188
12.796,-3.9073,-1.6428
9.5253,-2.9322,-2.6705
9.5591,-2.9463,-2.3093
14.054,-4.3342,-2.8587
12.817,-3.9625,-1.6472
12.644,-3.9116,-1.158
9.4911,-2.958,-2.6638
9.5302,-2.9738,-2.3048
14.023,-4.3785,-2.8556
12.827,-4.0149,-1.6504
12.589,-3.9426,-1.1541
9.4549,-2.9829,-2.6565
9.4937,-2.9988,-2.2985
13.993,-4.4227,-2.8526
12.897,-4.0861,-1.6611
9.4223,-3.0089,-2.6503
9.4609,-3.0248,-2.2932
13.981,-4.4727,-2.8534
12.905,-4.1383,-1.664
9.3976,-3.0353,-2.6462
9.4286,-3.049,-2.2878
13.933,-4.5082,-2.8465
12.993,-4.2142,-1.6772
14.199,-4.6135,-0.78242
9.3515,-3.0584,-2.6363
9.4068,-3.0783,-2.2851
13.888,-4.5501,-2.8408
12.809,-4.2038,-1.6552
14.121,-4.6455,-0.77907
9.3059,-3.0794,-2.6265
9.3677,-3.1035,-2.2783
14.174,-4.6958,0.78253
13.854,-4.5923,-2.8369
12.691,-4.2169,-1.6421
12.586,-4.1844,-1.1604
9.2622,-3.1009,-2.6172
9.326,-3.124,-2.2707
14.082,-4.7199,0.77834
13.826,-4.6369,-2.8347
14.131,-4.7418,1.304
12.918,-4.3399,-1.6733
9.2427,-3.1285,-2.6146
9.2818,-3.1453,-2.2626
14.005,-4.7485,0.77499
13.772,-4.6695,-2.8266
14.056,-4.7688,1.2986
12.956,-4.4029,-1.6801
9.2037,-3.1529,-2.6068
9.2634,-3.1752,-2.2608
13.907,-4.7695,0.77049
13.71,-4.7047,-2.8175
13.971,-4.797,1.2923
14.039,-4.8231,1.8227
9.1543,-3.1718,-2.596
9.2572,-3.211,-2.2621
13.82,-4.7938,0.76662
13.619,-4.7267,-2.8022
13.879,-4.8196,1.2854
13.685,-4.7549,-2.2946
13.952,-4.8504,1.8137
13.752,-4.7837,-1.7878
13.192,-4.5915,-1.2221
9.1159,-3.1941,-2.5882
9.2575,-3.2456,-2.2648
13.739,-4.8195,0.76306
13.545,-4.7541,-2.7904
13.791,-4.8429,1.2787
13.65,-4.7937,-2.2915
13.885,-4.8789,1.8071
13.746,-4.8326,-1.789
13.755,-4.8413,-1.2758
13.829,-4.8701,-0.7684
13.912,-4.9048,-0.25749
9.0761,-3.214,-2.5799
13.939,-4.9387,0.25812
9.2461,-3.2779,-2.2648
13.659,-4.8423,0.7595
13.468,-4.7773,-2.7778
13.724,-4.8706,1.274
13.791,-4.9001,1.7971
13.89,-4.9489,-0.25739
9.0284,-3.2326,-2.5696
13.971,-5.0024,0.25903
9.2315,-3.3072,-2.2639
13.58,-4.8677,0.75605
13.4,-4.8058,-2.7671
13.662,-4.9023,1.2699
13.697,-4.9176,1.7868
8.9959,-3.2547,-2.5633
9.2163,-3.3381,-2.263
13.484,-4.8865,0.75165
13.297,-4.8187,-2.7492
13.587,-4.9266,1.2645
13.623,-4.9451,1.7795
8.9639,-3.2803,-2.5577
9.221,-3.3762,-2.2671
13.416,-4.915,0.74882
12.859,-4.7134,-2.6622
13.496,-4.9496,1.2577
12.907,-4.7361,-2.1776
13.541,-4.9687,1.771
12.979,-4.7651,-1.6976
8.8999,-3.2922,-2.5426
9.2159,-3.4127,-2.2689
13.328,-4.9355,0.74485
12.769,-4.731,-2.6469
13.404,-4.9689,1.2507
12.826,-4.7571,-2.1666
13.465,-4.9968,1.7634
12.915,-4.7954,-1.6915
13.008,-4.8326,-1.2141
13.05,-4.8531,-0.72967
13.136,-4.8878,-0.24465
8.8576,-3.3117,-2.5338
13.151,-4.9169,0.24507
9.1954,-3.4399,-2.2666
13.253,-4.9603,0.7416
12.699,-4.7555,-2.6358
13.327,-4.9933,1.2451
12.762,-4.7816,-2.1585
13.378,-5.015,1.7542
12.838,-4.8152,-1.6835
12.915,-4.8493,-1.2069
12.959,-4.8683,-0.72548
13.053,-4.909,-0.24343
8.8266,-3.3336,-2.5281
13.076,-4.9408,0.24398
9.1688,-3.4664,-2.263
13.179,-4.9853,0.73846
12.646,-4.7837,-2.6282
13.249,-5.0142,1.2394
12.684,-4.803,-2.1482
13.288,-5.0342,1.7447
12.761,-4.8374,-1.6757
13.37,-5.0709,2.2649
12.863,-4.8809,-1.2036
13.456,-5.1062,2.7976
12.886,-4.8922,-0.72234
13.512,-5.1326,3.3369
12.991,-4.9375,-0.24259
8.7801,-3.3528,-2.5183
13,-4.9643,0.2429
9.1639,-3.5012,-2.2648
13.106,-5.0099,0.73532
12.559,-4.8034,-2.6137
13.18,-5.0435,1.2346
12.607,-4.8269,-2.1381
13.211,-5.0579,1.7369
12.691,-4.8613,-1.6686
13.301,-5.0978,2.2561
12.791,-4.9051,-1.1986
13.362,-5.1267,2.782
12.814,-4.9187,-0.71931
13.424,-5.1556,3.3198
12.905,-4.9563,-0.2413
13.483,-5.1811,3.8704
8.7287,-3.3681,-2.5069
12.93,-4.9918,0.24193
9.1619,-3.539,-2.2675
13.008,-5.0246,0.73082
12.491,-4.8274,-2.603
13.095,-5.0636,1.2284
12.55,-4.8552,-2.1313
13.149,-5.0898,1.7313
12.604,-4.8813,-1.6596
13.211,-5.1164,2.2439
12.711,-4.9252,-1.1926
13.286,-5.1506,2.7698
12.742,-4.9424,-0.71627
13.331,-5.1735,3.3014
12.818,-4.9745,-0.24001
13.415,-5.2086,3.8559
8.6809,-3.3845,-2.4966
12.848,-5.0092,0.2407
9.1465,-3.5679,-2.2666
12.953,-5.0555,0.72873
12.414,-4.8474,-2.5904
13.022,-5.0876,1.2231
12.471,-4.8723,-2.1206
13.066,-5.1073,1.7225
12.546,-4.9064,-1.654
13.134,-5.1394,2.2339
12.631,-4.9448,-1.1867
13.205,-5.1696,2.7564
12.676,-4.965,-0.71344
13.279,-5.2042,3.2928
12.755,-5.001,-0.23913
13.314,-5.2229,3.8321
8.6408,-3.402,-2.4883
12.763,-5.0276,0.23945
9.1304,-3.5984,-2.2657
12.882,-5.0794,0.72569
12.356,-4.872,-2.5816
12.929,-5.1007,1.216
12.395,-4.8926,-2.1106
12.972,-5.123,1.7125
12.484,-4.9327,-1.6482
13.063,-5.1642,2.2248
12.562,-4.9662,-1.1818
13.123,-5.1903,2.7431
12.603,-4.9871,-0.7103
13.201,-5.2268,3.278
12.674,-5.0205,-0.23795
13.238,-5.2466,3.8155
8.5948,-3.4185,-2.4785
12.701,-5.0544,0.23861
9.1413,-3.6396,-2.2716
12.571,-5.0076,0.70915
12.276,-4.8904,-2.5687
12.856,-5.1237,1.2108
12.325,-4.9146,-2.1015
12.905,-5.1484,1.7059
12.397,-4.9483,-1.6389
12.992,-5.1885,2.2157
12.488,-4.9871,-1.1764
13.046,-5.2128,2.7309
12.511,-5.0014,-0.70612
13.105,-5.2418,3.2586
12.608,-5.0454,-0.23704
13.164,-5.2705,3.7995
8.5595,-3.4392,-2.4717
12.63,-5.0771,0.2376
8.5915,-3.4555,-2.1379
12.493,-5.0247,0.7057
8.644,-3.4784,-1.8112
12.777,-5.144,1.205
12.256,-4.937,-2.0928
12.829,-5.1704,1.6984
12.344,-4.9774,-1.6343
12.89,-5.1976,2.2013
12.426,-5.0128,-1.1722
12.973,-5.2363,2.7194
12.454,-5.0294,-0.70392
13.027,-5.2634,3.2438
12.528,-5.0617,-0.23585
13.085,-5.2895,3.7819
8.4938,-3.4472,-2.4562
12.563,-5.0986,0.23665
8.5385,-3.4671,-2.1276
8.6045,-3.4974,-1.8054
12.672,-5.1533,1.1968
8.6497,-3.5176,-1.4789
12.757,-5.1905,1.6911
8.6708,-3.5297,-1.1495
12.817,-5.2202,2.192
8.7254,-3.5555,-0.82432
12.89,-5.2526,2.7057
8.7591,-3.5709,-0.49573
12.959,-5.2859,3.2312
12.451,-5.0812,-0.23473
13.01,-5.3118,3.7653
8.4572,-3.4651,-2.4489
12.48,-5.1159,0.23543
8.4939,-3.4836,-2.1195
12.501,-5.127,0.70811
8.5493,-3.5081,-1.7963
12.605,-5.1749,1.1921
8.6008,-3.5327,-1.4727
12.682,-5.2116,1.6835
8.6235,-3.5456,-1.1448
12.747,-5.2409,2.1829
8.6786,-3.57,-0.82101
12.823,-5.2774,2.6954
8.7336,-3.5962,-0.49499
12.874,-5.3037,3.2146
12.386,-5.1026,-0.23383
12.919,-5.3247,3.7441
8.4076,-3.4791,-2.4381
12.4,-5.1313,0.23425
8.4535,-3.4998,-2.1123
12.505,-5.1798,0.70936
8.5134,-3.5281,-1.7913
12.545,-5.2013,1.1881
8.5581,-3.5484,-1.4674
12.608,-5.23,1.6759
8.5879,-3.5643,-1.1417
12.699,-5.2732,2.1779
8.6182,-3.5804,-0.81647
12.749,-5.2965,2.6835
8.6719,-3.6044,-0.49217
12.81,-5.3269,3.2029
12.342,-5.1351,-0.23334
12.854,-5.3505,3.7306
8.3633,-3.495,-2.4288
12.333,-5.1566,0.23334
8.3957,-3.512,-2.101
12.431,-5.2024,0.70622
8.4666,-3.5434,-1.7841
12.462,-5.2181,1.182
8.4994,-3.5606,-1.4595
12.523,-5.2486,1.6672
8.5363,-3.5796,-1.1366
12.636,-5.3014,2.1704
8.5818,-3.6004,-0.81421
12.67,-5.3181,2.6709
8.6199,-3.6199,-0.48997
12.733,-5.3496,3.1885
12.29,-5.1663,-0.23271
12.782,-5.3758,3.7156
8.3315,-3.5159,-2.4231
12.266,-5.1786,0.2324
8.3457,-3.5253,-2.0916
12.348,-5.2186,0.70256
8.418,-3.5577,-1.7764
12.402,-5.2437,1.178
8.4597,-3.5787,-1.4548
12.453,-5.2706,1.6603
8.4799,-3.5908,-1.1307
12.561,-5.3216,2.1607
8.538,-3.6171,-0.81125
12.593,-5.3378,2.6587
8.5741,-3.636,-0.48809
12.637,-5.3613,3.1691
12.211,-5.1834,-0.23156
12.714,-5.3993,3.7011
8.2783,-3.5276,-2.4112
12.207,-5.2042,0.23163
8.2975,-3.5392,-2.0826
12.285,-5.2399,0.69994
8.3622,-3.5685,-1.7673
12.325,-5.2619,1.1724
8.4235,-3.5981,-1.4508
12.393,-5.2961,1.6547
8.4327,-3.6055,-1.1261
12.485,-5.3383,2.1507
8.4795,-3.6273,-0.80689
12.526,-5.3609,2.6484
8.5338,-3.6541,-0.48652
12.571,-5.3855,3.1574
12.143,-5.2018,-0.23058
12.619,-5.4087,3.6789
8.2127,-3.5336,-2.3956
12.129,-5.2185,0.23048
8.257,-3.5543,-2.0754
12.219,-5.2622,0.69722
8.3173,-3.5837,-1.7604
12.253,-5.2821,1.1674
8.3698,-3.6081,-1.4436
12.329,-5.3175,1.6486
8.3951,-3.6225,-1.1227
12.414,-5.3592,2.1416
8.4284,-3.6403,-0.80323
12.452,-5.3783,2.6366
8.4868,-3.6673,-0.48453
12.51,-5.4086,3.1466
12.064,-5.218,-0.22943
12.549,-5.4305,3.6638
8.1832,-3.5531,-2.3905
12.052,-5.2354,0.22936
8.216,-3.5707,-2.0682
12.158,-5.2865,0.69481
8.2783,-3.5995,-1.7547
12.184,-5.3004,1.1625
8.3137,-3.6184,-1.4361
12.252,-5.3352,1.6408
8.3479,-3.6367,-1.118
12.343,-5.3796,2.1325
8.3852,-3.6547,-0.80026
12.378,-5.3974,2.6248
8.4374,-3.6809,-0.48243
12.441,-5.4304,3.134
12.002,-5.2409,-0.22859
12.477,-5.451,3.6483
8.1407,-3.5684,-2.3817
11.988,-5.2573,0.22849
8.1696,-3.5845,-2.0597
12.076,-5.3008,0.69115
8.2424,-3.6181,-1.7497
12.124,-5.3245,1.1585
8.2739,-3.6354,-1.4314
12.174,-5.3515,1.6328
8.3079,-3.6538,-1.1144
12.275,-5.4012,2.1241
8.3432,-3.6711,-0.79748
12.319,-5.4231,2.6164
8.3879,-3.6943,-0.48034
12.348,-5.4408,3.1151
11.943,-5.265,-0.22782
12.412,-5.4743,3.6349
8.1035,-3.5859,-2.3744
11.924,-5.2789,0.22761
8.1231,-3.598,-2.0511
12,-5.315,0.6878
8.192,-3.6302,-1.7417
12.04,-5.3377,1.1522
8.2305,-3.6507,-1.4261
12.106,-5.3723,1.6262
8.2522,-3.662,-1.1085
12.205,-5.4186,2.115
8.3103,-3.6913,-0.79556
12.246,-5.4422,2.6049
8.3421,-3.7089,-0.47846
12.281,-5.4603,3.103
11.869,-5.2794,-0.22674
12.342,-5.4926,3.6198
8.0509,-3.5946,-2.3625
11.921,-5.3249,0.22789
8.072,-3.6074,-2.0412
11.942,-5.3368,0.6855
8.1315,-3.6357,-1.7314
11.978,-5.3581,1.148
8.1822,-3.6618,-1.4198
12.034,-5.388,1.6189
8.2037,-3.6731,-1.1036
12.122,-5.43,2.1037
8.2453,-3.6952,-0.7905
12.191,-5.4659,2.5969
8.2915,-3.7194,-0.47626
12.226,-5.4842,3.0935
12.271,-5.5098,3.6043
8.0002,-3.6038,-2.3511
8.5886,-3.8707,0.16444
8.044,-3.6269,-2.0372
11.885,-5.3612,0.6833
8.0961,-3.6521,-1.7264
11.915,-5.3773,1.1437
8.1449,-3.6775,-1.4154
11.982,-5.4124,1.6143
8.1673,-3.6911,-1.1005
12.042,-5.4446,2.0931
8.1985,-3.7069,-0.78719
12.099,-5.4731,2.5813
8.2555,-3.7362,-0.4749
12.16,-5.506,3.0818
8.5703,-3.8822,-0.16423
12.175,-5.5175,3.5815
7.9647,-3.6213,-2.3444
8.5278,-3.8791,0.16353
7.9941,-3.6381,-2.0277
11.813,-5.3787,0.68026
8.0583,-3.669,-1.7211
11.838,-5.3924,1.1381
8.0978,-3.6904,-1.4095
11.905,-5.4278,1.6065
8.1327,-3.7097,-1.0976
11.963,-5.4595,2.0828
8.1638,-3.7256,-0.7851
8.2024,-3.7467,-0.47259
12.083,-5.5217,3.067
8.5748,-3.9204,-0.16458
12.124,-5.5455,3.5722
7.9292,-3.6387,-2.3377
8.5396,-3.9206,0.16402
7.9477,-3.6505,-2.0192
8.0169,-3.684,-1.715
11.788,-5.4195,1.1351
8.0526,-3.7038,-1.4038
11.826,-5.442,1.5984
8.0801,-3.7198,-1.0922
11.896,-5.4789,2.0743
8.1182,-3.7391,-0.78196
11.955,-5.509,2.5587
8.153,-3.7586,-0.4705
12.014,-5.541,3.0544
8.5321,-3.9369,-0.16402
12.053,-5.5643,3.5572
7.9287,-3.672,-2.3413
8.4696,-3.9243,0.16294
7.9526,-3.6864,-2.0237
8.6282,-4.0014,0.49845
7.9933,-3.707,-1.7127
11.724,-5.4397,1.1308
8.0288,-3.7269,-1.402
11.769,-5.4656,1.5933
8.0382,-3.7346,-1.0883
11.833,-5.5004,2.0668
8.0888,-3.7598,-0.78039
11.893,-5.5308,2.5496
8.1109,-3.7735,-0.46883
11.941,-5.5582,3.0409
8.5038,-3.9599,-0.16374
11.999,-5.59,3.5469
7.9334,-3.7078,-2.3465
8.4722,-3.9614,0.16325
7.952,-3.7199,-2.0268
8.5817,-4.0163,0.49656
8.0035,-3.7457,-1.7177
11.646,-5.4527,1.125
8.039,-3.7658,-1.406
11.705,-5.4856,1.5872
8.0521,-3.7753,-1.0919
11.755,-5.514,2.0565
8.0792,-3.7897,-0.78074
11.918,-5.5932,2.5591
8.1157,-3.8103,-0.46987
11.957,-5.6164,3.0499
8.4718,-3.9811,-0.16339
11.995,-5.6393,3.5515
7.9326,-3.7413,-2.3501
8.4511,-3.9876,0.16311
7.9725,-3.7635,-2.0354
8.5676,-4.0462,0.49656
8.0134,-3.7845,-1.7226
11.569,-5.4661,1.1194
8.0455,-3.8031,-1.4095
11.639,-5.5044,1.5809
8.0622,-3.8144,-1.0951
11.691,-5.5339,2.0487
8.0714,-3.8205,-0.78126
11.924,-5.6465,2.5645
8.1313,-3.8523,-0.47155
11.969,-5.6731,3.058
8.4759,-4.0192,-0.16374
12.019,-5.7018,3.5645
7.9509,-3.7839,-2.3594
8.4136,-4.0059,0.16266
7.9892,-3.8055,-2.043
8.5902,-4.0918,0.49866
8.0267,-3.8251,-1.7283
11.517,-5.491,1.1163
8.05,-3.8397,-1.4126
11.566,-5.5193,1.5736
8.0847,-3.8597,-1.1
11.626,-5.5505,2.0405
8.0724,-3.8555,-0.78266
11.934,-5.7025,2.571
8.143,-3.8927,-0.47301
11.999,-5.7384,3.0706
8.4734,-4.0525,-0.16395
12.042,-5.7616,3.5769
7.9655,-3.825,-2.3677
8.449,-4.0571,0.1636
8.0275,-3.8565,-2.0561
11.431,-5.4939,0.66467
8.0381,-3.865,-1.7337
11.468,-5.5165,1.1133
8.0675,-3.8809,-1.4179
11.5,-5.5344,1.567
8.0915,-3.8959,-1.1027
11.584,-5.5799,2.0365
8.0947,-3.901,-0.78614
11.945,-5.7565,2.5774
8.1516,-3.9301,-0.47427
12.022,-5.7985,3.0814
8.4484,-4.0768,-0.16374
12.055,-5.8196,3.5867
7.9876,-3.8682,-2.378
8.4275,-4.0831,0.16346
8.0175,-3.8862,-2.057
11.37,-5.5138,0.66226
8.0482,-3.9028,-1.7387
11.401,-5.531,1.1086
8.0841,-3.9237,-1.4232
11.427,-5.5485,1.5597
8.1118,-3.9406,-1.1073
11.513,-5.5953,2.0274
8.1266,-3.9496,-0.7905
11.906,-5.7887,2.5733
8.163,-3.9708,-0.47573
11.943,-5.8123,3.0665
8.4808,-4.129,-0.16465
12.006,-5.8481,3.5784
7.9983,-3.908,-2.3853
8.4456,-4.1283,0.16409
8.0196,-3.9218,-2.061
11.31,-5.5332,0.65985
8.0557,-3.9412,-1.7432
11.319,-5.5401,1.1025
8.0916,-3.9623,-1.427
11.384,-5.577,1.5565
8.1194,-3.9794,-1.1102
11.442,-5.6102,2.0183
8.1378,-3.9902,-0.79294
8.1778,-4.0133,-0.47741
11.885,-5.8351,3.0566
7.995,-3.941,-2.3884
8.467,-4.1755,0.16479
8.0321,-3.9627,-2.0677
11.247,-5.5515,0.65734
8.0701,-3.9832,-1.7493
11.26,-5.5602,1.0987
8.1061,-4.0045,-1.432
11.333,-5.6009,1.5521
8.1268,-4.0183,-1.1132
11.378,-5.6282,2.0105
8.1345,-4.0239,-0.79399
8.1924,-4.056,-0.47908
11.817,-5.8531,3.0445
8.0089,-3.9826,-2.3967
8.0321,-3.9977,-2.0713
11.206,-5.58,0.65608
8.0842,-4.0254,-1.7554
11.205,-5.5817,1.0952
8.108,-4.0407,-1.4348
11.258,-5.613,1.5446
8.1376,-4.059,-1.1166
11.325,-5.6511,2.0046
8.1596,-4.0718,-0.79782
8.2014,-4.0962,-0.48044
11.756,-5.8743,3.0341
8.0226,-4.0244,-2.4049
8.039,-4.0362,-2.0767
11.158,-5.6047,0.65441
8.0982,-4.0677,-1.7615
11.136,-5.5957,1.0903
8.1203,-4.0823,-1.4395
11.181,-5.6237,1.5368
8.1482,-4.0999,-1.12
11.255,-5.6658,1.9958
8.1721,-4.1137,-0.80044
8.2013,-4.132,-0.48128
8.0429,-4.0698,-2.4153
8.0597,-4.0818,-2.0857
11.119,-5.6337,0.65326
8.1085,-4.1083,-1.7669
11.093,-5.6228,1.0881
8.1342,-4.1249,-1.4445
11.119,-5.6411,1.5309
8.1621,-4.1427,-1.1239
11.19,-5.6818,1.9877
8.179,-4.153,-0.80253
8.2313,-4.1832,-0.4839
8.0528,-4.1102,-2.4225
8.0749,-4.125,-2.0934
11.108,-5.6771,0.65378
8.1203,-4.15,-1.7726
11.031,-5.6397,1.0839
8.1567,-4.1722,-1.4511
11.069,-5.6645,1.5268
8.1794,-4.1874,-1.1283
11.129,-5.7001,1.9805
8.191,-4.1952,-0.80514
8.2576,-4.2329,-0.48631
8.0521,-4.1453,-2.4267
8.0985,-4.1728,-2.1033
11.095,-5.7195,0.6542
8.1389,-4.1954,-1.7799
10.952,-5.6481,1.0781
8.1614,-4.2106,-1.4545
11.016,-5.6858,1.5221
8.1965,-4.2323,-1.1327
11.066,-5.7162,1.9726
8.2117,-4.242,-0.80863
8.2729,-4.2773,-0.48809
8.0736,-4.1921,-2.4376
8.0978,-4.2082,-2.1069
11.091,-5.7636,0.65504
8.1382,-4.231,-1.7829
10.897,-5.6679,1.0746
8.1747,-4.2536,-1.4595
10.97,-5.7105,1.5185
8.2151,-4.2784,-1.1373
11.011,-5.7346,1.9664
8.2234,-4.2845,-0.81125
8.2845,-4.32,-0.48966
8.0897,-4.2364,-2.4469
11.059,-5.7916,0.21791
8.1062,-4.2468,-2.1127
11.056,-5.7948,0.6542
8.1599,-4.2786,-1.7909
10.837,-5.6846,1.0706
8.1833,-4.2927,-1.4636
10.902,-5.721,1.5117
8.2238,-4.3176,-1.1405
10.96,-5.7565,1.9607
8.2419,-4.3308,-0.81456
8.3002,-4.3632,-0.49143
10.988,-5.7811,-0.21672
8.1047,-4.2785,-2.4557
11.011,-5.8152,0.21735
8.1206,-4.2906,-2.1204
11.047,-5.839,0.65483
8.1665,-4.3166,-1.7955
10.79,-5.7056,1.0678
8.2119,-4.3443,-1.4714
10.839,-5.7368,1.5058
8.2192,-4.3518,-1.1419
10.882,-5.7642,1.9504
8.2486,-4.3693,-0.81665
11.255,-5.9642,2.4759
8.3114,-4.4062,-0.493
11.297,-5.9916,2.9523
10.959,-5.8148,-0.21655
11.346,-6.0224,3.4418
8.105,-4.315,-2.4603
11.005,-5.8663,0.65357
8.1773,-4.359,-1.8012
10.722,-5.7179,1.0631
10.793,-5.7605,1.5022
8.2459,-4.4029,-1.1478
10.827,-5.7836,1.9442
8.2562,-4.4102,-0.81892
8.1121,-4.3551,-2.4671
8.9419,-4.8047,-2.3435
10.951,-5.8867,0.65158
10.66,-5.7327,1.0589
10.733,-5.7765,1.4966
10.765,-5.7988,1.9367
8.1359,-4.4046,-2.479
8.9217,-4.834,-2.3426
10.892,-5.9039,0.64928
10.605,-5.7509,1.0555
10.678,-5.795,1.4917
10.719,-5.8222,1.932
8.1442,-4.4459,-2.4862
8.8979,-4.8614,-2.3408
10.831,-5.9199,0.64687
10.555,-5.7716,1.0525
10.607,-5.8046,1.4846
10.652,-5.834,1.9235
8.1608,-4.492,-2.4961
8.8809,-4.8924,-2.3408
10.775,-5.9384,0.64478
10.51,-5.7949,1.0501
10.55,-5.8215,1.4795
10.593,-5.8501,1.9166
8.1619,-4.5298,-2.5012
8.8552,-4.9186,-2.3386
10.712,-5.9527,0.64227
10.441,-5.8045,1.0452
10.507,-5.8457,1.4763
10.533,-5.865,1.9094
8.1764,-4.5753,-2.5105
8.8363,-4.9486,-2.3381
10.66,-5.9724,0.64038
9.982,-5.5925,-2.2241
10.383,-5.8195,1.0413
10.007,-5.6112,-1.8171
10.447,-5.86,1.4707
10.082,-5.6578,-1.4195
10.471,-5.8785,1.9019
10.097,-5.6687,-1.0131
10.139,-5.6968,-0.6095
10.211,-5.7416,-0.20447
8.1924,-4.6218,-2.5204
10.224,-5.7705,0.20493
8.8173,-4.9784,-2.3377
10.361,-5.8524,0.62364
9.9436,-5.6167,-2.2199
10.328,-5.8361,1.0379
9.9669,-5.6344,-1.8134
10.388,-5.875,1.4654
10.023,-5.6705,-1.4139
10.428,-5.9024,1.8979
10.06,-5.6941,-1.0114
10.426,-5.9037,2.329
10.091,-5.7165,-0.60783
10.49,-5.9444,2.7835
10.18,-5.7713,-0.20426
8.2115,-4.6704,-2.5313
10.169,-5.7863,0.20423
8.7812,-4.9986,-2.3327
10.259,-5.8421,0.61872
9.883,-5.628,-2.2107
10.266,-5.8484,1.0337
9.9111,-5.6486,-1.8068
10.316,-5.8817,1.458
9.9717,-5.6878,-1.4095
10.366,-5.9152,1.8904
10.016,-5.7154,-1.0089
10.392,-5.9323,2.326
10.056,-5.7427,-0.60689
10.464,-5.9781,2.7822
10.13,-5.79,-0.20367
10.485,-5.9951,3.2363
8.2253,-4.7164,-2.5406
10.123,-5.8069,0.2037
8.7671,-5.0311,-2.3336
10.184,-5.8443,0.61537
9.8326,-5.6449,-2.2038
10.209,-5.8634,1.03
9.8605,-5.6655,-1.8012
10.271,-5.9038,1.4546
9.9157,-5.7018,-1.4044
10.307,-5.9269,1.8832
9.9632,-5.7314,-1.0056
10.388,-5.9783,2.3298
9.9942,-5.7539,-0.60438
10.399,-5.9893,2.7705
10.047,-5.7866,-0.20238
10.44,-6.0154,3.2285
8.2372,-4.7615,-2.5494
10.074,-5.8234,0.20311
8.7436,-5.0563,-2.3318
10.136,-5.8638,0.61369
9.784,-5.6625,-2.1974
10.166,-5.886,1.0277
9.8195,-5.6853,-1.7971
10.217,-5.9179,1.4498
9.8623,-5.7147,-1.3995
10.259,-5.947,1.8782
9.9018,-5.7422,-1.0014
10.331,-5.9911,2.3214
9.9491,-5.772,-0.60281
10.345,-6.0042,2.7615
9.9956,-5.8036,-0.20175
10.384,-6.0314,3.2176
8.2414,-4.8005,-2.5556
10.014,-5.8354,0.20231
8.7377,-5.0936,-2.335
10.088,-5.8831,0.61202
9.7346,-5.6771,-2.1905
10.1,-5.8926,1.023
9.7603,-5.6966,-1.7899
10.169,-5.9375,1.4459
9.8166,-5.7341,-1.3959
10.192,-5.9559,1.8697
9.8517,-5.7569,-0.99828
10.269,-6.0033,2.3122
9.8962,-5.7875,-0.60082
10.296,-6.0235,2.7539
9.958,-5.8283,-0.2014
10.303,-6.0325,3.199
8.2579,-4.8488,-2.5659
9.9644,-5.8531,0.20171
8.7131,-5.1201,-2.3332
10.04,-5.902,0.61034
9.6826,-5.6921,-2.1832
10.05,-5.9106,1.0201
9.7131,-5.7146,-1.7849
10.095,-5.9418,1.4383
9.7589,-5.7461,-1.3905
10.139,-5.9724,1.8638
9.7921,-5.768,-0.99427
10.204,-6.0132,2.3023
9.857,-5.8108,-0.59967
10.239,-6.0386,2.7444
9.898,-5.8397,-0.2006
10.273,-6.0635,3.1964
8.2742,-4.8972,-2.5763
9.9026,-5.8634,0.20088
8.6902,-5.1475,-2.3318
9.9778,-5.9126,0.60783
9.6441,-5.7149,-2.179
9.9953,-5.9253,1.0166
9.6677,-5.7334,-1.7802
10.033,-5.9527,1.4325
9.7115,-5.764,-1.3866
10.101,-5.9976,1.8606
9.7547,-5.7919,-0.99253
10.153,-6.0308,2.2954
9.7989,-5.8228,-0.59736
10.183,-6.0534,2.735
9.8586,-5.8629,-0.20021
10.209,-6.0736,3.183
8.2869,-4.9439,-2.5856
9.8649,-5.8876,0.20053
8.6805,-5.1828,-2.3341
9.9091,-5.9187,0.6049
9.5904,-5.7284,-2.1714
9.9574,-5.95,1.0148
9.6154,-5.7478,-1.7743
9.9734,-5.9642,1.4268
9.6623,-5.7805,-1.3825
10.031,-6.0034,1.8516
9.7071,-5.8096,-0.98974
10.108,-6.052,2.2901
9.7442,-5.8364,-0.59527
10.11,-6.0579,2.721
9.7867,-5.8665,-0.19917
10.154,-6.0894,3.1726
8.301,-4.9917,-2.5954
9.8168,-5.9055,0.19997
8.6707,-5.2181,-2.3363
9.8678,-5.9409,0.60364
9.535,-5.7405,-2.1634
9.8957,-5.96,1.0107
9.5631,-5.762,-1.7683
9.9304,-5.9857,1.4237
9.6217,-5.8019,-1.3796
9.9829,-6.0221,1.8466
9.6595,-5.827,-0.98695
10.05,-6.065,2.2817
9.6981,-5.8549,-0.5937
10.067,-6.08,2.7152
9.737,-5.883,-0.19857
10.087,-6.0968,3.1581
8.3083,-5.0357,-2.6032
9.75,-5.9118,0.19903
8.6541,-5.2494,-2.3368
9.8231,-5.9608,0.60218
9.4813,-5.7534,-2.1558
9.8373,-5.9718,1.0068
9.5176,-5.78,-1.7636
9.8722,-5.9977,1.4183
9.5556,-5.8076,-1.373
9.9349,-6.0405,1.8415
9.5914,-5.8317,-0.98207
9.9735,-6.0664,2.2691
9.6486,-5.8711,-0.59192
10.012,-6.0949,2.7062
9.6942,-5.9035,-0.19812
10.036,-6.1139,3.1488
8.3303,-5.0888,-2.6156
9.7003,-5.9281,0.19843
8.6341,-5.2785,-2.3363
9.7743,-5.9757,0.6004
9.4361,-5.7711,-2.15
9.7892,-5.9894,1.004
9.467,-5.7946,-1.758
9.8292,-6.0186,1.4151
9.5126,-5.8248,-1.3696
9.8794,-6.0517,1.835
9.5472,-5.8505,-0.97963
9.9171,-6.0796,2.2611
9.5889,-5.8807,-0.58951
9.9657,-6.1117,2.699
9.6473,-5.9188,-0.19756
9.9875,-6.1299,3.14
8.3348,-5.1296,-2.6224
9.6431,-5.9371,0.19767
8.6182,-5.3082,-2.3368
9.7154,-5.9839,0.59799
9.3901,-5.7859,-2.1439
9.7439,-6.0062,1.0014
9.4108,-5.8031,-1.7511
9.7652,-6.0241,1.4088
9.4527,-5.8313,-1.3637
9.8341,-6.0689,1.8303
9.5023,-5.8665,-0.97702
9.8635,-6.0918,2.2535
9.532,-5.8894,-0.58721
9.9138,-6.1253,2.6904
9.6021,-5.935,-0.19704
9.9457,-6.1498,3.1333
8.367,-5.1877,-2.6379
9.5911,-5.949,0.197
8.5972,-5.3347,-2.3359
9.6564,-5.9919,0.59558
9.3425,-5.7994,-2.1374
9.7019,-6.0248,0.99915
9.3747,-5.8239,-1.748
9.7199,-6.0407,1.4052
9.408,-5.8468,-1.3601
9.7736,-6.0764,1.8228
9.4574,-5.8822,-0.9744
9.8199,-6.11,2.2481
9.4921,-5.9083,-0.58595
9.8422,-6.1262,2.6765
9.5467,-5.9446,-0.1963
9.8925,-6.1623,3.1229
8.3743,-5.2308,-2.6456
9.5459,-5.9649,0.19648
8.5927,-5.3714,-2.3395
9.6094,-6.007,0.59391
9.29,-5.8095,-2.1298
9.6329,-6.0263,0.9941
9.3386,-5.8445,-1.7449
9.6763,-6.0581,1.4017
9.3633,-5.8622,-1.3564
9.7249,-6.091,1.8175
9.3991,-5.8892,-0.97039
9.768,-6.1227,2.2409
9.4403,-5.9196,-0.58396
9.8119,-6.1526,2.6738
9.4897,-5.9529,-0.19554
9.8295,-6.1684,3.1095
8.3787,-5.2784,-2.6534
9.4992,-5.9866,0.19599
8.5819,-5.4106,-2.3422
9.5633,-6.0316,0.59255
9.2443,-5.8305,-2.1245
9.5793,-6.0441,0.99096
9.281,-5.8581,-1.7383
9.6277,-6.0794,1.3981
9.3212,-5.8881,-1.3537
9.6704,-6.111,1.8118
9.3427,-5.9039,-0.96691
9.7162,-6.1423,2.2344
9.3989,-5.944,-0.58281
9.7674,-6.1794,2.6684
9.4404,-5.9749,-0.19501
9.7769,-6.1902,3.1007
8.3879,-5.3252,-2.6622
9.4428,-5.9972,0.19526
8.5531,-5.4343,-2.3395
9.5169,-6.0489,0.59098
9.1908,-5.8417,-2.1168
9.5346,-6.0625,0.98852
9.2322,-5.8725,-1.733
9.5596,-6.0831,1.3913
9.2772,-5.9057,-1.3503
9.624,-6.1288,1.8071
9.3002,-5.9226,-0.96464
9.6582,-6.153,2.226
9.3444,-5.9553,-0.58072
9.703,-6.1863,2.6567
9.3908,-5.9895,-0.19442
9.7161,-6.1994,3.0882
8.4083,-5.3794,-2.6746
9.3999,-6.0161,0.1948
8.5357,-5.4651,-2.3399
9.457,-6.0573,0.58857
9.1505,-5.861,-2.1123
9.4849,-6.0775,0.98556
9.1833,-5.8865,-1.7277
9.5015,-6.0928,1.3859
9.2214,-5.9155,-1.3452
9.5726,-6.1431,1.8015
9.2576,-5.941,-0.96237
9.6136,-6.1718,2.2206
9.2883,-5.9653,-0.57852
9.6551,-6.2032,2.6495
9.3396,-6.0028,-0.19379
9.6717,-6.2186,3.081
8.4301,-5.4349,-2.6876
9.3486,-6.0294,0.19418
8.515,-5.4938,-2.3395
9.4006,-6.0675,0.58637
9.0987,-5.8727,-2.105
9.4385,-6.0944,0.98294
9.1445,-5.9068,-1.7242
9.4602,-6.113,1.383
9.159,-5.9207,-1.3391
9.5196,-6.1561,1.7956
9.2051,-5.9527,-0.95906
9.5672,-6.1893,2.2149
9.2422,-5.9814,-0.57695
9.5827,-6.2041,2.6355
9.2967,-6.0212,-0.19334
9.6288,-6.2387,3.0743
8.4418,-5.4843,-2.6974
9.304,-6.0467,0.19369
8.5055,-5.5299,-2.3422
9.3559,-6.0851,0.58491
9.0518,-5.8873,-2.0989
9.3821,-6.1045,0.97928
9.099,-5.9225,-1.7195
9.4172,-6.1319,1.3798
9.1184,-5.9397,-1.3362
9.4699,-6.171,1.7902
9.1609,-5.9696,-0.95662
9.511,-6.2002,2.2069
9.1996,-5.9994,-0.57559
9.5496,-6.23,2.6324
9.2489,-6.0362,-0.19278
9.5666,-6.2459,3.0613
8.4485,-5.5307,-2.7057
9.2628,-6.066,0.19327
8.5155,-5.5788,-2.3503
9.3129,-6.1035,0.58355
9.0131,-5.907,-2.0947
9.3324,-6.1186,0.97632
