5.5557,6.6563,-2.3232
6.426,7.6963,-2.3147
7.5125,8.9913,-2.2775
9.2289,11.042,-2.2793
5.5914,6.6541,-2.3289
6.4628,7.6857,-2.3183
7.5625,8.9903,-2.2836
9.3018,11.05,-2.2877
3.6444,4.3247,0.89574
5.622,6.6434,-2.332
6.5098,7.6869,-2.3255
7.6484,9.0283,-2.3
9.3684,11.051,-2.2946
5.6465,6.6252,-2.3325
6.553,7.6834,-2.3314
7.7423,9.0747,-2.3187
9.4723,11.095,-2.3105
5.6872,6.626,-2.3397
6.5887,7.6709,-2.3345
7.774,9.0477,-2.3187
9.5767,11.138,-2.3265
5.7229,6.6207,-2.3449
6.6269,7.6611,-2.3386
7.8736,9.0991,-2.3389
9.6607,11.157,-2.3374
5.7663,6.624,-2.3532
6.6792,7.6673,-2.3476
7.944,9.116,-2.3504
5.7919,6.6067,-2.3542
6.7098,7.6483,-2.3489
7.9719,9.0838,-2.3492
3.7803,4.3015,0.90701
5.8252,6.598,-2.3584
6.7467,7.6392,-2.353
8.0491,9.1074,-2.3626
5.8521,6.5845,-2.3604
6.7915,7.636,-2.3593
8.0649,9.0645,-2.3584
5.8905,6.5813,-2.3666
6.8298,7.6253,-2.3633
8.1318,9.0758,-2.3687
5.9316,6.5808,-2.3739
6.8707,7.6173,-2.3683
8.1871,9.0736,-2.3756
5.9584,6.5643,-2.3754
6.9208,7.6192,-2.3764
8.3217,9.1583,-2.4053
5.9904,6.5535,-2.3791
6.9684,7.6181,-2.3836
8.3669,9.1437,-2.4092
3.9421,4.3036,0.71659
3.8909,4.2447,0.91201
6.029,6.5496,-2.3853
7.0069,7.6066,-2.3876
8.4094,9.126,-2.4122
3.9463,4.2781,0.71464
6.0623,6.5398,-2.3894
7.0413,7.5906,-2.3903
8.4559,9.1124,-2.4164
4.3037,4.6362,0.55344
3.9558,4.2585,0.71367
6.1009,6.5356,-2.3956
7.0771,7.576,-2.3935
8.4997,9.0957,-2.4198
6.1343,6.5255,-2.3998
7.1249,7.574,-2.4007
8.5691,9.106,-2.4305
6.1597,6.5068,-2.4008
7.1714,7.5703,-2.4074
8.6386,9.116,-2.4412
6.1999,6.506,-2.4081
7.2206,7.5718,-2.4155
8.681,9.1001,-2.4446
4.3562,4.5649,0.55204
3.9635,4.1504,0.70465
6.2359,6.4982,-2.4132
7.2578,7.5578,-2.4191
8.7318,9.0895,-2.45
3.9311,4.0879,0.69636
6.2693,6.4875,-2.4174
7.3018,7.5506,-2.425
8.788,9.0844,-2.4569
6.3013,6.4753,-2.421
7.3444,7.5419,-2.4304
8.8443,9.079,-2.4637
4.0552,4.1584,0.71318
6.3374,6.467,-2.4262
7.3898,7.5357,-2.4367
8.9227,9.0957,-2.4767
4.0419,4.1159,0.7083
4.2797,4.355,0.96708
6.3695,6.4545,-2.4298
7.4311,7.5251,-2.4416
8.993,9.1036,-2.4874
4.3316,4.3833,0.53915
4.0423,4.0877,0.70587
6.4124,6.4528,-2.4376
7.4642,7.506,-2.4439
9.0511,9.0986,-2.4946
3.9865,4.0032,0.69368
6.4472,6.4427,-2.4422
7.5124,7.5019,-2.4511
9.1175,9.1016,-2.5042
4.0932,4.0818,0.70977
6.4792,6.4296,-2.4458
7.5607,7.4976,-2.4583
9.1674,9.0877,-2.5091
4.0121,3.9759,0.49417
6.5032,6.4108,-2.4469
7.6147,7.5012,-2.4677
9.2296,9.0889,-2.5179
4.0054,3.943,0.49173
3.9676,3.9017,0.88135
6.541,6.4054,-2.4531
7.6492,7.4855,-2.4709
9.2822,9.0802,-2.524
4.0783,3.9882,0.49905
4.4955,4.387,-0.32919
6.5811,6.3976,-2.4593
7.6837,7.4669,-2.4736
9.3562,9.0858,-2.5351
6.6187,6.3893,-2.465
7.7307,7.4576,-2.4799
9.4161,9.0804,-2.5427
4.2043,4.0529,0.51091
4.1946,4.0407,0.71513
4.5038,4.3326,-0.32752
6.6521,6.3769,-2.4691
7.7792,7.4521,-2.4871
9.4719,9.0705,-2.5492
4.2011,4.0217,0.50882
4.49,4.2892,-0.32543
6.6855,6.3643,-2.4733
7.832,7.4505,-2.4956
9.5291,9.0618,-2.5561
4.1631,3.9576,0.50254
4.5238,4.2914,-0.32679
6.7203,6.3529,-2.4779
7.8792,7.4431,-2.5024
9.5978,9.0635,-2.566
4.1523,3.9198,0.49958
6.7579,6.3439,-2.4836
7.9165,7.4263,-2.506
9.668,9.0662,-2.5763
3.9376,3.6887,0.66248
6.797,6.3361,-2.4898
7.971,7.4279,-2.5154
9.7169,9.0484,-2.5809
4.6014,4.2759,-0.32919
6.8265,6.3214,-2.4929
8.0083,7.4106,-2.519
9.7771,9.0442,-2.5889
6.8596,6.3055,-2.4966
8.0571,7.4037,-2.5262
9.8434,9.0388,-2.5977
6.8929,6.2919,-2.5007
8.1,7.3886,-2.5311
4.5101,4.1125,0.31988
9.9068,9.0335,-2.6061
4.7471,4.318,-0.33631
6.9292,6.2808,-2.5059
8.1431,7.3759,-2.5365
4.5185,4.0914,0.31946
9.979,9.0358,-2.6168
4.3118,3.9028,0.50882
6.9712,6.2747,-2.5131
8.1978,7.3735,-2.5455
10.028,9.0166,-2.6213
6.9959,6.2529,-2.5142
8.2525,7.3708,-2.5545
10.089,9.0077,-2.629
4.6191,4.114,-0.32417
7.0299,6.2437,-2.5193
8.2917,7.3591,-2.5595
10.154,9.0086,-2.6385
4.0857,3.6237,0.47779
7.076,6.2383,-2.5276
8.3334,7.3443,-2.5644
4.4299,3.9028,0.30941
10.222,9.0024,-2.6477
4.096,3.606,0.47744
4.1973,3.69,-0.48894
7.1195,6.2327,-2.5354
8.3808,7.3316,-2.5707
4.3744,3.8268,0.3046
10.287,8.9964,-2.6564
4.0996,3.5838,0.47639
4.3122,3.7644,-0.5008
4.8087,4.1949,-0.33443
7.1543,6.2192,-2.5401
8.4153,7.3128,-2.5739
4.3138,3.7473,0.29947
10.354,8.9913,-2.6656
7.1793,6.1992,-2.5416
8.4674,7.3063,-2.582
4.339,3.7427,0.3003
10.402,8.9723,-2.6702
4.1389,3.5689,0.47814
4.0327,3.4724,-0.46559
7.2112,6.1829,-2.5452
8.5195,7.2995,-2.5901
4.3505,3.7262,0.3002
10.476,8.973,-2.6812
4.4359,3.798,0.51091
7.2474,6.1702,-2.5504
8.5672,7.2886,-2.5968
4.1134,3.4995,0.28303
10.544,8.9669,-2.6904
7.2866,6.1599,-2.5566
8.6017,7.269,-2.6
4.2705,3.6076,0.29298
10.623,8.9706,-2.7026
3.9172,3.3056,0.62933
4.401,3.7099,-0.50359
4.8843,4.1159,-0.33474
7.3218,6.1481,-2.5618
4.5505,3.8197,0.1037
8.6494,7.2577,-2.6067
10.674,8.953,-2.708
4.6815,3.9199,0.96708
7.3521,6.1299,-2.5649
4.5684,3.8076,0.10381
8.6971,7.2462,-2.6135
10.729,8.9358,-2.7141
7.3824,6.1116,-2.568
4.6017,3.8082,0.10426
8.7644,7.2506,-2.6261
10.793,8.9258,-2.7225
7.4286,6.1041,-2.5763
4.5408,3.7312,0.10259
8.8063,7.2335,-2.631
10.865,8.9186,-2.7324
4.1349,3.388,-0.46768
4.9729,4.0717,-0.33683
7.4753,6.0989,-2.5851
4.4274,3.6109,0.099723
8.8569,7.2209,-2.6382
4.1424,3.3773,0.2801
10.942,8.9178,-2.7438
4.7757,3.8852,-0.53862
7.5131,6.0862,-2.5908
4.4331,3.5911,0.099583
8.9186,7.2222,-2.6495
4.1324,3.3452,0.27864
10.996,8.8981,-2.7496
4.5464,3.6777,0.5116
4.6684,3.7737,-0.73707
4.7892,3.8686,-0.53862
4.3187,3.486,1.2813
7.5453,6.0709,-2.5949
4.3583,3.5054,0.097629
8.965,7.2081,-2.6558
11.048,8.88,-2.7553
4.5337,3.6426,0.50882
4.7714,3.8294,-0.7512
4.7256,3.7913,0.95957
4.9725,3.9866,-0.33401
7.5765,6.0504,-2.598
9.0267,7.2059,-2.6666
4.5366,3.6202,0.30418
11.133,8.8811,-2.7683
4.5034,3.5912,0.50393
4.6916,3.7385,-0.73658
4.1288,3.2877,-0.46175
4.998,3.977,-0.33474
7.6218,6.0432,-2.6063
9.0714,7.1873,-2.672
4.5649,3.6168,0.30522
11.204,8.8738,-2.7782
4.7096,3.7288,0.52555
4.2469,3.36,0.66492
4.6741,3.6967,-0.7317
4.4018,3.4813,0.88886
4.1558,3.2856,-0.46349
5.1451,4.0648,-0.34364
5.6024,4.4246,-0.12461
7.6489,6.0213,-2.6084
4.3964,3.4609,0.097664
9.1304,7.1849,-2.6823
11.266,8.8589,-2.7858
4.0411,3.1754,0.63104
4.4186,3.4696,0.8898
4.7722,3.7459,-0.53078
5.7768,4.5296,-0.12814
7.6917,6.0137,-2.6161
4.4573,3.4837,0.098746
9.1846,7.1758,-2.6909
11.329,8.8481,-2.7942
4.4522,3.476,0.49417
4.0975,3.1967,0.63811
4.4151,3.442,0.88667
4.4598,3.4756,1.0991
4.7133,3.6692,-0.10426
7.7294,5.9999,-2.6218
4.5231,3.5098,0.099932
9.2404,7.1676,-2.6999
4.7382,3.674,0.31423
11.388,8.8302,-2.8011
4.2612,3.3029,0.47169
4.1369,3.2043,0.6425
4.9772,3.8524,-0.55065
4.5449,3.5165,1.117
4.5267,3.4986,-0.099863
7.761,5.9811,-2.6255
9.2916,7.1555,-2.7075
4.7773,3.679,0.316
11.453,8.8167,-2.8095
4.2346,3.2564,0.6559
5.0096,3.8496,-0.55274
4.5605,3.5006,-0.10035
7.8034,5.9704,-2.6327
9.3555,7.1554,-2.7192
11.524,8.8077,-2.8194
4.2921,3.2792,0.47256
4.8433,3.699,0.74828
4.5663,3.4799,-0.10021
7.84,5.9574,-2.6384
9.3897,7.1298,-2.7219
4.5334,3.4423,0.29831
11.586,8.7944,-2.8274
4.804,3.6424,0.74023
4.8229,3.6542,-0.52938
5.0944,3.8557,-0.11152
7.8839,5.9474,-2.6462
9.4553,7.1303,-2.7341
4.4991,3.3916,0.29528
11.643,8.7739,-2.8339
4.6051,3.4677,0.70782
7.9139,5.9268,-2.6493
3.9908,2.9877,0.087018
9.5095,7.1166,-2.7422
4.5787,3.4253,0.29968
11.709,8.7591,-2.8423
4.3862,3.2801,0.47918
4.8786,3.6457,0.74779
4.6154,3.4465,0.91233
5.067,3.7837,-0.55326
4.5515,3.3975,1.104
5.1623,3.8521,-0.33757
4.9937,3.7235,-0.10873
7.9423,5.9049,-2.6519
9.5609,7.1031,-2.7498
11.777,8.7463,-2.8514
4.5852,3.4015,0.70099
4.8887,3.6254,-0.7473
4.6321,3.4339,0.91326
4.7784,3.5371,-0.10377
4.6852,3.4669,1.5617
7.98,5.8898,-2.6576
9.6201,7.0952,-2.7597
4.3545,3.2092,0.47326
4.8623,3.5809,0.74145
4.9301,3.6295,-0.75169
5.054,3.7166,-0.32877
4.8523,3.5657,1.6135
8.0145,5.8722,-2.6622
4.6762,3.4263,0.10119
9.6405,7.0609,-2.7588
4.4204,3.234,0.47918
4.621,3.3796,0.70294
4.9742,3.6365,-0.75656
4.598,3.3603,0.902
4.1459,3.0288,-0.4492
4.6953,3.4289,-0.3047
4.8679,3.551,1.6145
8.0558,5.8615,-2.6695
4.6558,3.3864,0.10049
9.7155,7.0639,-2.7732
4.6553,3.3798,0.70635
4.9772,3.6122,-0.7551
4.7232,3.4266,0.92421
4.2468,3.0798,-0.45896
4.6733,3.3879,-0.3025
4.7654,3.4534,1.3587
4.3223,3.1311,-0.093161
8.0897,5.841,-2.6736
9.7669,7.0493,-2.7808
4.6606,3.3589,0.70538
4.8393,3.4851,0.94455
5.1953,3.7401,-0.56006
4.6386,3.3369,-0.29947
4.7591,3.4223,1.3533
4.3169,3.1043,-0.092812
8.1242,5.8228,-2.6783
9.8386,7.0464,-2.7939
4.7117,3.3695,0.71123
4.1677,2.9783,-0.44815
4.6405,3.3137,-0.29884
4.771,3.4056,1.3533
4.318,3.0822,-0.092602
4.8356,3.4505,1.5917
8.1665,5.8101,-2.6855
4.0686,2.8946,0.087157
9.8699,7.0194,-2.7961
4.6957,3.3358,0.50393
4.6322,3.2895,0.69758
4.6477,3.2981,0.90263
5.4596,3.8713,-0.35076
4.7886,3.3943,1.3551
4.3287,3.0672,-0.092602
4.9186,3.4838,1.615
8.2063,5.7975,-2.6922
4.1114,2.9035,0.087855
9.9071,6.9939,-2.7997
5.1141,3.605,0.76826
4.8389,3.4097,-0.72683
5.5622,3.9164,1.3223
5.1954,3.6568,-0.33296
4.9423,3.4774,1.3951
4.7941,3.3718,-0.10231
4.9576,3.4855,1.6238
8.2454,5.7821,-2.6984
9.9809,6.9939,-2.8137
5.1753,3.6238,0.55274
4.7705,3.3379,0.71489
4.6572,3.2574,-0.69782
4.6123,3.2248,0.89136
5.2742,3.6875,-0.56303
5.1344,3.5872,-0.32825
4.9288,3.4422,1.3879
4.7304,3.3024,-0.1007
5.1598,3.6009,1.6859
10.02,6.969,-2.8177
4.6676,3.2441,0.49731
4.8749,3.3869,-0.94017
4.6403,3.2227,0.69368
4.9115,3.4098,-0.73414
4.7956,3.328,0.92453
4.2934,2.9796,-0.45722
5.1354,3.5613,-0.32752
4.9713,3.4461,1.3965
4.8239,3.3327,-1.571
4.0626,2.8057,0.08618
4.8464,3.3458,-1.3596
4.9709,3.4305,0.31653
4.8507,3.3475,-1.1456
4.8774,3.3647,0.5184
4.6973,3.238,0.70051
4.9169,3.3881,-0.73317
4.8934,3.3707,0.94111
4.7731,3.2878,-0.50707
4.9399,3.4015,1.1658
4.9241,3.3893,-0.31328
4.2788,2.943,-0.090648
4.8418,3.3202,-1.5731
4.8673,3.3365,0.103
4.8371,3.3145,-1.3538
4.877,3.3406,-1.1491
4.8529,3.3229,0.51457
4.843,3.3149,-0.92953
4.8953,3.3494,0.72829
4.7484,3.2477,-0.70635
4.9834,3.4071,0.95613
4.2303,2.8922,-0.44833
4.9453,3.3798,1.1643
4.4245,3.0205,-0.09351
5.0664,3.4573,1.6435
4.8518,3.3022,-1.5726
4.8707,3.3138,0.10283
4.8551,3.302,-1.3556
4.9551,3.3687,0.31402
4.8805,3.318,-1.1471
4.9568,3.3686,0.52433
4.848,3.2935,-0.92828
4.7285,3.2099,-0.70172
5.2813,3.5838,1.0109
4.2008,2.8505,-0.44415
4.8921,3.3184,1.1491
4.8286,3.2741,-0.30575
4.8191,3.2652,-0.10161
5.0112,3.3941,1.6218
4.8969,3.308,-1.5835
4.8358,3.2655,0.10185
4.8731,3.2894,-1.3574
4.9172,3.3179,0.31088
4.8823,3.2944,-1.1449
4.8448,3.2666,-0.92547
4.726,3.1853,0.69977
4.7594,3.2067,-0.70465
5.0398,3.3943,0.96238
4.8238,3.2488,-0.50882
4.8201,3.2439,-0.30449
4.8719,3.2763,-0.10248
8.4642,5.6749,-2.7305
4.9038,3.2841,0.30931
4.8627,3.2541,-0.92672
4.8724,3.2593,0.71976
4.7706,3.19,-0.70465
4.8666,3.253,-0.51213
4.8298,3.2259,-0.30439
4.8068,3.2082,-0.10087
5.3016,3.5371,1.7077
8.5,5.656,-2.7357
4.5771,3.0445,0.095953
10.348,6.8807,-2.869
5.1265,3.4073,0.3226
4.851,3.2218,-0.92234
4.9928,3.3147,0.73585
4.8148,3.1953,-0.70952
4.7473,3.1493,0.90231
4.8181,3.1963,-0.50585
4.8144,3.1914,-0.30271
8.5342,5.6358,-2.7404
4.7412,3.1298,0.099165
10.387,6.8542,-2.8731
4.6715,3.0815,0.29329
4.8375,3.1861,-0.71123
4.8209,3.174,-0.50498
5.1216,3.3707,1.1918
4.737,3.1164,-0.29716
5.2233,3.435,1.4433
8.5749,5.6198,-2.7471
5.6119,3.6765,0.11711
10.426,6.8275,-2.8771
5.1212,3.3538,0.32082
4.8298,3.157,0.91389
4.6977,3.0671,-0.29402
5.2189,3.4061,1.4388
8.6155,5.6035,-2.7538
10.486,6.8173,-2.8875
5.235,3.4022,0.3272
5.4256,3.5234,0.56599
5.4772,3.5529,1.034
4.6256,2.9993,-0.48232
4.6811,3.0318,-0.09735
5.2655,3.409,1.6808
8.6486,5.5843,-2.7585
10.539,6.7997,-2.8956
5.6225,3.6193,1.0591
4.6389,2.9861,-0.48267
5.1494,3.3135,1.1903
5.2579,3.3781,1.6746
8.6746,5.5583,-2.7606
10.587,6.7786,-2.9023
5.2122,3.3295,0.97959
5.7978,3.7036,-0.6019
5.1444,3.2849,1.1865
5.1585,3.2914,1.4127
8.7167,5.5425,-2.7678
5.0343,3.1998,0.10412
10.649,6.7656,-2.9127
5.1759,3.2873,0.32134
5.5484,3.5198,0.80678
5.1337,3.2542,0.9627
5.1995,3.2921,1.4208
8.7556,5.5244,-2.774
4.9135,3.099,0.1014
10.669,6.7264,-2.9118
5.2511,3.3081,0.54298
5.0835,3.2,0.73755
5.1685,3.251,0.96708
4.7475,2.9862,-0.49069
5.2357,3.2869,1.6564
8.805,5.5148,-2.7839
4.8932,3.0636,0.10077
10.658,6.6703,-2.9028
4.6543,2.9061,-0.48005
5.158,3.2193,1.1819
4.526,2.8238,-0.27958
5.1564,3.2133,1.628
8.8373,5.4922,-2.788
5.0568,3.1414,0.10391
10.797,6.705,-2.9343
5.1196,3.178,0.3158
5.2193,3.2323,1.1933
4.9726,3.076,-0.10206
5.0591,3.1282,1.5938
8.8696,5.4694,-2.7921
10.86,6.6918,-2.9451
5.2306,3.2204,0.5374
5.2589,3.2328,0.97772
4.7737,2.9322,-0.2936
5.0004,3.069,-0.10241
5.1886,3.1833,1.6311
8.9101,5.4516,-2.7989
10.877,6.6498,-2.9433
5.6152,3.4275,0.80775
5.1109,3.1136,1.3816
8.9489,5.4324,-2.8051
12.482,7.574,0.25484
4.8873,2.9645,0.29957
5.3211,3.2251,0.54437
5.6237,3.4058,0.80726
4.9077,2.971,-0.7044
5.7066,3.4547,1.0566
5.6882,3.4422,-0.58168
5.6526,3.4193,1.2841
4.9769,3.0094,-0.3048
4.441,2.6843,-0.090578
5.1275,3.098,1.6052
8.9893,5.4141,-2.8118
10.914,6.5706,-2.941
4.9148,2.9578,0.30062
5.1206,3.0792,0.52276
5.441,3.2706,0.77948
4.8801,2.9322,-0.69904
5.7497,3.452,-0.58673
5.573,3.346,1.2635
5.2773,3.1659,1.4208
4.5155,2.7078,-0.091904
5.1714,3.0999,1.6155
9.0221,5.3932,-2.8165
10.9,6.5104,-2.9311
5.0727,3.0275,0.51683
5.5069,3.2841,0.78728
4.8937,2.9172,-0.69953
4.5631,2.7169,-0.27832
4.4407,2.642,-0.090194
9.0535,5.367,-2.8201
10.973,6.5021,-2.9446
4.5421,2.6819,-0.27644
5.1908,3.0637,1.3915
9.0955,5.3491,-2.8273
11.04,6.4876,-2.9563
5.1934,3.0518,0.31569
5.2626,3.09,0.53392
5.6626,3.3182,1.2757
4.641,2.7185,-0.28188
5.2737,3.0879,1.4109
12.394,7.2568,-0.25069
9.1458,5.3358,-2.8372
11.077,6.4597,-2.9604
5.2282,3.0478,0.31716
5.294,3.0836,0.53601
4.797,2.7919,-0.68149
5.6447,3.2826,1.2693
4.7813,2.7794,-0.28984
12.495,7.2576,-0.25222
9.1918,5.3219,-2.846
11.094,6.4181,-2.959
5.4285,3.1354,0.76973
4.7156,2.7226,-0.66858
4.9259,2.8405,-0.298
9.2254,5.2984,-2.8506
11.169,6.4094,-2.973
5.0691,2.9043,0.71732
4.856,2.7811,-0.6871
4.6011,2.634,-0.46384
5.6845,3.2529,1.2731
12.097,6.9142,-0.24322
9.2539,5.2719,-2.8537
11.223,6.3887,-2.9815
5.1638,2.9346,0.72927
5.7283,3.2515,1.2803
12.715,7.2083,-0.25512
9.3059,5.2586,-2.8641
5.1311,2.8983,0.10286
11.313,6.3878,-2.9995
5.5337,3.1193,0.77996
5.6714,3.1944,-0.56948
13.046,7.3363,-0.26126
9.363,5.2478,-2.876
5.1168,2.8667,0.10238
11.319,6.3388,-2.995
4.9554,2.7706,0.69709
5.4627,3.048,1.4442
11.978,6.6831,-0.23941
9.4353,5.2451,-2.8926
11.365,6.3154,-3.0017
5.245,2.9133,0.31443
4.8882,2.7118,0.68637
5.8034,3.2169,1.0509
4.4597,2.471,-0.44606
9.4222,5.197,-2.8832
12.523,6.9043,0.2496
11.438,6.3039,-3.0152
11.756,6.4762,0.7034
5.5933,3.0775,0.78386
5.7765,3.1756,1.044
4.5724,2.5116,-0.2734
5.1258,2.8133,-0.10206
9.4395,5.1615,-2.8827
11.495,6.2826,-3.0242
12.192,6.6611,0.7281
4.9523,2.7023,0.69271
5.8589,3.1931,-0.58377
12.238,6.6641,-0.7303
9.4235,5.1101,-2.8724
12.315,6.6754,0.24451
11.567,6.2674,-3.0373
11.746,6.3644,0.70015
5.4685,2.9581,0.76339
5.0061,2.7068,0.90138
4.4398,2.3996,-0.44153
6.2027,3.351,1.3704
4.6307,2.5007,-0.27581
4.6579,2.5143,-0.092393
5.3946,2.9108,1.6425
9.5518,5.1367,-2.906
12.893,6.9275,0.76704
5.0504,2.708,0.90763
4.6425,2.4872,-0.27602
4.7336,2.5339,-0.093719
5.4728,2.9284,1.6632
9.6097,5.1268,-2.9184
12.413,6.6196,0.24556
10.346,5.5147,-2.7066
5.8935,3.1336,1.0572
4.5088,2.3974,-0.44676
4.6106,2.4494,-0.27361
5.5752,2.9581,1.6911
9.672,5.1167,-2.9319
10.342,5.4668,-2.7008
5.5415,2.9279,0.32846
11.957,6.315,1.1831
5.9044,3.113,1.0572
5.0952,2.6864,-0.50393
13.085,6.8932,-0.7751
12.364,6.5077,-0.24388
9.6607,5.0677,-2.9231
5.0314,2.6382,0.099165
10.339,5.4189,-2.6949
5.3871,2.8223,0.31873
5.8977,3.0833,1.0541
4.9809,2.604,-0.49173
4.7356,2.4736,-0.28
12.234,6.3849,-0.24088
9.6663,5.0277,-2.9195
11.715,6.0908,0.23048
10.341,5.3738,-2.6904
10.467,5.4373,-2.2928
5.9032,3.0599,1.0531
4.9882,2.5857,-0.49156
12.922,6.6953,2.8289
12.524,6.4809,-0.24615
5.623,2.9085,1.6963
9.7147,5.0141,-2.9293
12.822,6.6151,0.25184
10.352,5.3386,-2.6891
10.46,5.3918,-2.2874
10.489,5.4024,-1.8688
5.846,3.007,1.0412
4.5516,2.3412,-0.44781
5.6321,2.8908,1.6963
9.7682,4.9987,-2.9402
5.122,2.6199,0.10042
10.364,5.2989,-2.6873
5.2038,2.6595,0.30627
10.47,5.3508,-2.2855
10.48,5.3514,-1.8638
10.549,5.3822,-1.4541
5.6224,2.8672,0.99962
5.9513,3.035,-0.58447
12.417,6.3215,-0.24322
5.5957,2.8475,1.6823
9.8011,4.9724,-2.9448
12.565,6.3716,0.2459
10.41,5.2767,-2.6945
5.3497,2.7117,0.31433
10.495,5.3178,-2.287
10.495,5.313,-1.8631
10.547,5.3346,-1.4512
12.852,6.5005,2.2811
10.603,5.3604,-1.0394
11.689,5.9018,-0.22856
9.8219,4.9399,-2.9459
5.0682,2.549,0.099025
10.445,5.2509,-2.699
10.544,5.2961,-2.2935
10.525,5.2844,-1.8653
12.352,6.1989,1.6969
10.57,5.3022,-1.452
5.5041,2.7598,0.97521
10.573,5.2993,-1.0347
10.65,5.3354,-0.62426
11.731,5.8717,-0.22898
9.8607,4.9185,-2.9526
5.1272,2.5563,0.1
10.519,5.2423,-2.7134
5.3006,2.6405,0.31035
10.568,5.2599,-1.8697
10.588,5.2653,-1.452
5.5774,2.7723,0.98648
10.584,5.2588,-1.034
10.626,5.2769,-0.62175
10.708,5.3134,-0.20866
9.8821,4.884,-2.9536
5.111,2.526,0.099514
12.305,6.076,0.7192
12.47,6.1522,1.2165
10.771,5.3118,1.4746
10.642,5.2459,-1.4568
5.5374,2.7283,0.97772
10.622,5.2315,-1.0359
10.652,5.2414,-0.62217
10.707,5.2663,-0.20828
9.9026,4.8512,-2.9547
10.731,5.2546,0.20856
11.921,5.8351,-3.0643
12.871,6.2969,0.75092
12.466,6.0963,1.2141
10.746,5.2505,1.4685
13.17,6.4291,2.3212
10.684,5.2135,-1.0401
10.69,5.2138,-0.62332
10.705,5.2165,-0.20786
9.9342,4.8216,-2.9588
10.735,5.2101,0.20828
11.905,5.7756,-3.0548
10.788,5.2314,0.62835
5.3127,2.574,0.51648
10.739,5.2008,1.4651
12.55,6.0696,-1.2197
12.951,6.2607,2.7961
12.669,6.1218,-0.73741
10.73,5.1825,-0.208
9.944,4.7836,-2.9567
10.761,5.1742,0.20842
11.952,5.7446,-3.0616
10.805,5.191,0.62824
12.738,6.1194,-2.7469
10.81,5.1911,1.0492
10.733,5.1494,1.4617
11.967,5.7364,-1.1611
12.768,6.1146,-0.74191
12.796,6.1255,3.2753
12.801,6.1221,3.8021
9.9414,4.7397,-2.9511
10.884,5.1865,0.21044
12.048,5.7389,-3.0809
10.823,5.1532,0.62824
12.74,6.0656,-2.7427
10.821,5.1499,1.0485
10.722,5.0983,1.4578
10.907,5.1815,1.9126
12.389,5.8853,-1.2
5.6148,2.6661,1.2082
12.861,6.1043,-0.7461
12.895,6.1175,3.2951
11.654,5.5263,-0.22514
9.9946,4.7223,-2.9619
11.983,5.6568,-3.0593
10.858,5.1258,0.62929
12.773,6.0269,-2.7454
10.848,5.1163,1.0494
12.792,6.0302,-2.2398
10.742,5.0617,1.458
10.889,5.1285,1.9063
5.4944,2.5855,1.1803
5.1238,2.41,-0.29674
12.881,6.0559,3.2861
11.736,5.5174,-0.22636
13.083,6.1482,3.8735
10.046,4.7038,-2.9723
12.482,5.8417,-3.1817
12.91,6.0391,0.74694
10.918,5.1029,1.0544
12.801,5.9827,-2.238
10.764,5.0286,1.4588
12.85,6.0001,-1.7413
12.868,6.0061,2.2492
12.529,5.845,-1.2095
5.5225,2.5764,1.1845
5.1426,2.398,-0.29737
12.906,6.0156,3.2874
11.831,5.5119,-0.22782
10.077,4.6777,-2.9769
12.534,5.8129,-3.1898
12.609,5.8423,1.2158
10.782,4.9909,1.4588
12.876,5.9577,-1.742
12.81,5.9246,2.2354
12.881,5.9573,-1.2416
12.861,5.9454,2.7541
5.0059,2.313,-0.289
12.061,5.5678,-0.23187
10.099,4.645,-2.9785
13.243,6.0884,0.25442
12.569,5.7756,-3.1934
13.046,5.9922,0.75238
12.782,5.8681,1.2305
10.824,4.9649,1.4622
5.8438,2.6767,1.2494
5.0684,2.3205,-0.29214
12.999,5.9457,-0.2495
13.175,6.0237,3.8818
10.113,4.6089,-2.978
11.983,5.4586,0.22985
12.605,5.739,-3.1975
12.599,5.731,1.2109
10.872,4.941,1.4663
12.275,5.5759,2.1353
12.75,5.789,-1.2251
5.8317,2.6466,1.2448
5.0947,2.311,-0.29319
13.077,5.9292,3.3149
12.1,5.4864,-0.23191
10.163,4.5887,-2.9878
12.956,5.85,0.24814
12.633,5.7012,-3.1997
13.003,5.8655,0.74757
5.4584,2.46,0.52381
10.925,4.9212,1.4712
12.912,5.8082,-1.2387
5.7223,2.5741,1.2197
13.006,5.848,-0.74736
12.78,5.7436,3.2348
10.226,4.5762,-3.0018
12.916,5.7778,0.24699
12.675,5.6674,-3.2056
12.96,5.7946,0.74401
13.027,5.819,1.2482
11.116,4.9607,1.4946
13.254,5.9123,2.2986
5.6828,2.5325,1.2093
12.852,5.7219,-0.24556
10.277,4.5562,-3.0121
11.903,5.277,0.22727
12.719,5.6364,-3.2119
13.07,5.789,0.74914
5.4932,2.4308,0.52555
13.178,5.8288,1.7693
12.993,5.7387,-1.2427
5.7378,2.5343,1.2193
12.554,5.5423,-0.7192
12.804,5.6472,-0.24426
10.302,4.5267,-3.0152
12.262,5.385,0.23376
12.755,5.599,-3.2159
5.359,2.3502,0.51195
12.988,5.6904,1.741
13.483,5.902,2.3312
5.7215,2.5032,1.2139
12.873,5.6241,-0.24521
10.378,4.517,-3.0328
12.071,5.2512,0.22978
12.815,5.5723,-3.2262
13.152,5.7159,0.75154
13.102,5.6861,1.7537
13.254,5.7464,2.288
13.069,5.6553,-0.24856
10.447,4.5036,-3.0484
12.512,5.3911,0.23781
12.842,5.5306,-3.228
13.306,5.7276,0.75919
13.163,5.6633,1.2536
12.53,5.3806,2.1597
12.7,5.4536,-1.2092
5.6234,2.4137,1.1895
12.388,5.3145,-0.70643
13.09,5.6105,-0.24859
10.484,4.4762,-3.0546
12.692,5.4164,0.24088
12.863,5.4865,-3.2285
5.2843,2.2518,0.50254
13.22,5.6279,1.7642
13.428,5.711,2.3112
12.693,5.3983,-1.2068
12.785,5.4321,-0.72799
12.872,5.4639,-0.24409
10.518,4.4471,-3.0598
12.317,5.2055,0.23341
12.878,5.4401,-3.2276
12.059,5.0915,0.68602
13.251,5.5922,1.2584
13.075,5.5123,1.7422
12.73,5.3617,-1.2085
5.9097,2.4878,1.2464
12.955,5.4509,-0.73658
12.185,5.1222,-0.23072
10.54,4.4134,-3.0618
12.697,5.3138,0.24025
12.856,5.3778,-3.2173
13.448,5.6226,0.7639
5.5609,2.3239,0.52729
13.142,5.4865,1.7486
12.716,5.3035,-1.2054
13.084,5.4462,-0.24737
10.638,4.4106,-3.0856
12.902,5.344,-3.224
12.577,5.2096,0.71344
5.6206,2.3258,0.53217
13.084,5.4088,1.7383
13.081,5.4049,2.2417
12.653,5.2256,-1.1977
13.538,5.5827,-0.25561
10.707,4.3955,-3.1012
12.033,4.9402,0.22706
13.026,5.3449,-3.2505
13.586,5.5719,0.76955
5.6286,2.3062,0.53217
12.139,4.9712,1.6106
12.999,5.3127,-0.73595
13.578,5.5437,-0.25599
10.773,4.381,-3.1162
13.111,5.3265,-3.2672
12.541,5.0924,0.70936
12.404,5.0343,1.1712
12.957,5.2482,2.2142
12.219,4.9394,-0.23006
10.766,4.3321,-3.1095
13.142,5.2858,-3.2703
13.667,5.494,0.77196
12.389,4.9754,1.1681
13.104,5.2544,2.2361
12.938,5.1826,2.7091
13.05,5.2248,-0.73668
12.218,4.8893,-0.22971
10.836,4.3167,-3.1255
13.172,5.2419,-3.273
13.744,5.4668,0.7752
12.373,4.9189,1.1649
13.064,5.183,2.2261
12.952,5.1359,2.7083
12.977,5.1431,-0.73155
12.515,4.9549,-0.23494
10.938,4.3129,-3.1503
13.198,5.1988,-3.2748
12.73,5.012,0.717
12.805,5.0336,1.6894
13.174,5.1735,2.2417
13.03,5.1117,-0.73354
12.271,4.8091,-0.23006
10.969,4.281,-3.155
12.115,4.7258,0.22699
13.212,5.1513,-3.2739
5.4131,2.1061,0.71318
13.064,5.0753,2.7244
13.087,5.0813,-0.73574
12.837,4.9817,3.179
12.306,4.7756,-0.23041
11.009,4.2524,-3.1623
13.671,5.2808,0.25582
13.229,5.1074,-3.2739
12.736,4.9144,0.71543
13.433,5.1754,1.7676
12.291,4.7304,2.0859
11.023,4.2159,-3.1623
13.757,5.2588,0.25707
13.282,5.0744,-3.2825
12.063,4.6063,0.6767
13.477,5.1384,1.771
12.696,4.8302,-0.71187
13.188,5.0148,3.2573
11.007,4.1658,-3.1535
13.88,5.2503,0.25903
13.33,5.0398,-3.2901
10.953,4.1016,-3.1338
13.381,5.0055,-3.2982
10.823,4.0122,-3.0929
13.401,4.9624,-3.2991
12.753,4.7177,1.1897
13.718,5.0663,2.3162
10.796,3.9616,-3.0815
12.374,4.5381,0.23006
13.425,4.9206,-3.3009
10.823,3.9285,-3.0851
13.409,4.8618,-3.2928
13.182,4.7588,-0.73448
10.833,3.8894,-3.0841
13.268,4.7584,-3.2541
13.86,4.9682,0.77164
10.883,3.8645,-3.0944
13.203,4.6834,-3.2343
14.006,4.9651,0.77876
10.918,3.8342,-3.1007
13.965,4.9013,0.25833
13.22,4.6373,-3.2343
13.998,4.9076,0.7774
10.955,3.8043,-3.1074
13.732,4.766,0.25372
13.251,4.5962,-3.2379
10.972,3.7673,-3.1084
13.307,4.5638,-3.2478
13.935,4.7736,1.2887
10.987,3.7296,-3.1089
13.393,4.5411,-3.2649
11.022,3.6986,-3.1151
13.429,4.5012,-3.2699
11.051,3.6655,-3.1198
13.463,4.4604,-3.2744
11.08,3.6324,-3.1245
13.499,4.42,-3.2793
11.1,3.596,-3.1265
13.537,4.3801,-3.2847
11.12,3.5596,-3.1286
13.576,4.3405,-3.2906
11.155,3.5278,-3.1348
13.62,4.3049,-3.2978
11.192,3.4988,-3.1421
13.648,4.2614,-3.3009
11.226,3.4666,-3.1483
13.696,4.224,-3.309
11.261,3.4342,-3.1545
13.743,4.1859,-3.3167
11.273,3.3948,-3.1545
13.78,4.1446,-3.3221
11.318,3.3654,-3.1638
13.82,4.1042,-3.3284
11.344,3.3302,-3.1679
13.845,4.0617,-3.3311
11.377,3.299,-3.1742
13.889,4.022,-3.3383
11.4,3.2625,-3.1773
13.925,3.9799,-3.3437
11.423,3.2258,-3.1804
13.969,3.9397,-3.3509
11.456,3.1921,-3.1866
14.005,3.8972,-3.3563
11.486,3.1572,-3.1918
14.034,3.8524,-3.3599
11.527,3.1252,-3.2
14.077,3.8116,-3.3671
11.545,3.087,-3.2021
14.119,3.77,-3.3738
11.57,3.0506,-3.2063
11.607,3.017,-3.2135
11.633,2.9803,-3.2176
11.673,2.9472,-3.2259
11.694,2.9093,-3.229
11.712,2.8703,-3.2311
11.741,2.8339,-3.2363
11.773,2.8003,-3.2425
11.797,2.7627,-3.2466
11.826,2.7259,-3.2518
11.847,2.6871,-3.2549
11.875,2.65,-3.2601
11.907,2.6135,-3.2663
11.931,2.5751,-3.2704
11.943,2.5364,-3.2715
11.966,2.4999,-3.2756
11.99,2.4612,-3.2798
12.014,2.4224,-3.2839
12.041,2.3842,-3.2891
12.057,2.3437,-3.2911
12.085,2.3031,-3.2963
12.111,2.2644,-3.3015
12.144,2.2267,-3.3082
12.173,2.188,-3.3139
12.184,2.1462,-3.315
12.214,2.1076,-3.3212
12.233,2.069,-3.3243
12.266,2.0328,-3.3315
12.292,1.9931,-3.3367
12.299,1.9502,-3.3367
12.327,1.9105,-3.3424
12.312,1.8643,-3.3367
12.304,1.819,-3.3326
12.34,1.7826,-3.3408
12.354,1.7385,-3.3429
11.085,1.5205,-2.9982
10.867,1.4519,-2.9376
11.091,1.4799,-2.5833
10.659,1.3881,-2.8801
10.857,1.4101,-2.5275
11.125,1.4429,-2.1806
10.529,1.3339,-2.8439
10.639,1.3441,-2.4758
10.916,1.377,-2.1386
10.526,1.2962,-2.8418
10.569,1.2977,-2.4583
10.72,1.3143,-2.0993
10.527,1.259,-2.8408
10.575,1.261,-2.4587
10.617,1.2641,-2.0783
10.547,1.224,-2.8449
10.589,1.2252,-2.461
10.635,1.2286,-2.081
10.562,1.1885,-2.848
10.583,1.1871,-2.4587
10.651,1.1928,-2.0833
10.584,1.1535,-2.8527
10.601,1.1517,-2.4619
10.649,1.155,-2.0821
10.929,1.1815,-1.7411
10.586,1.1164,-2.8522
10.613,1.1173,-2.4637
10.657,1.1182,-2.0829
10.9,1.1418,-1.7358
10.588,1.081,-2.8517
10.616,1.0803,-2.4637
10.663,1.0831,-2.0833
10.858,1.0991,-1.7286
10.609,1.0458,-2.8563
10.636,1.0447,-2.4673
10.684,1.0476,-2.0867
10.854,1.0605,-1.7273
10.618,1.0093,-2.8579
10.643,1.0079,-2.4682
10.685,1.0101,-2.0863
10.838,1.0207,-1.7242
10.635,0.97346,-2.8615
10.654,0.97151,-2.47
10.701,0.97384,-2.0886
10.848,0.98341,-1.7252
10.63,0.93565,-2.8594
10.664,0.93482,-2.4713
10.696,0.93579,-2.0871
10.855,0.94588,-1.7258
10.638,0.89887,-2.8605
10.676,0.90027,-2.4736
10.721,0.90026,-2.0913
10.862,0.9102,-1.7264
10.652,0.86452,-2.8636
10.687,0.86362,-2.4754
10.734,0.86549,-2.0932
10.891,0.87433,-1.7305
10.661,0.82778,-2.8651
10.694,0.82662,-2.4763
10.744,0.82862,-2.0947
10.915,0.83798,-1.7339
10.669,0.791,-2.8667
10.699,0.78942,-2.4767
10.757,0.79184,-2.0966
10.977,0.8042,-1.7433
10.68,0.75429,-2.8688
10.715,0.7549,-2.4799
10.768,0.75483,-2.0981
10.686,0.71913,-2.8698
10.741,0.71905,-2.4853
10.774,0.71938,-2.0989
10.692,0.68207,-2.8708
10.728,0.68244,-2.4817
10.788,0.68251,-2.1012
10.718,0.64427,-2.877
10.73,0.64125,-2.4817
10.802,0.64367,-2.1035
10.741,0.60806,-2.8827
10.744,0.60632,-2.4844
10.836,0.60772,-2.1096
10.745,0.57254,-2.8832
10.756,0.56933,-2.4866
11.371,0.59992,-2.2134
10.739,0.53464,-2.8812
10.785,0.53501,-2.4929
11.412,0.56215,-2.221
10.755,0.49965,-2.8848
10.777,0.49691,-2.4907
11.459,0.52637,-2.2298
10.776,0.46294,-2.89
10.786,0.45962,-2.4925
10.785,0.42563,-2.892
10.798,0.42235,-2.4947
10.786,0.3861,-2.892
10.816,0.38528,-2.4988
14.582,0.49646,-0.76463
10.784,0.34832,-2.891
10.818,0.34564,-2.4988
10.797,0.311,-2.8941
10.829,0.31004,-2.501
10.801,0.2753,-2.8951
10.837,0.27243,-2.5028
13.344,0.3168,-0.69952
10.82,0.23609,-2.8998
10.842,0.23469,-2.5037
14.818,0.30264,-1.2967
14.491,0.2909,-0.7596
10.817,0.19825,-2.8988
10.847,0.19502,-2.5046
13.062,0.22116,-1.143
13.418,0.2225,-0.70329
10.811,0.1604,-2.8972
10.865,0.1593,-2.5087
13.013,0.1749,-1.1386
14.471,0.18691,-0.25261
10.825,0.12471,-2.9008
10.867,0.1214,-2.5091
13.004,0.13164,-1.1377
13.231,0.12933,-0.69345
10.824,0.086904,-2.9003
10.868,0.083459,-2.5091
13.076,0.086722,-1.144
13.184,0.082842,-0.69094
14.402,0.085461,-0.25138
10.841,0.049198,-2.905
10.864,0.045514,-2.5082
12.982,0.040793,-1.1358
13.248,0.036997,-0.69429
14.374,0.037626,-0.2509
10.836,0.011345,-2.9034
10.882,0.0094988,-2.5123
12.927,-0.0045122,-1.1309
14.332,-0.012507,-0.25016
10.832,-0.024577,-2.9024
10.882,-0.028488,-2.5123
14.41,-0.062874,-0.25152
10.839,-0.064323,-2.9045
10.868,-0.066389,-2.5091
14.649,-0.094604,-2.8476
12.912,-0.094654,-1.1297
14.22,-0.1092,-0.74526
14.269,-0.11207,-0.24908
10.843,-0.1022,-2.9055
10.879,-0.10634,-2.5118
14.47,-0.14396,-2.8129
13.84,-0.1546,-0.72538
14.303,-0.16227,-0.24967
10.854,-0.14019,-2.9086
10.887,-0.14251,-2.5136
14.368,-0.1931,-2.7931
13.29,-0.19021,-1.1628
13.61,-0.19717,-0.71334
10.848,-0.17609,-2.9071
10.894,-0.18064,-2.5154
14.179,-0.23759,-2.7564
13.245,-0.23351,-1.159
10.843,-0.21388,-2.906
10.897,-0.21685,-2.5163
14.148,-0.28648,-2.7507
13.551,-0.28622,-1.1858
10.846,-0.25182,-2.9071
10.887,-0.25656,-2.5141
14.025,-0.33298,-2.727
13.437,-0.33073,-1.1759
10.849,-0.28978,-2.9081
10.878,-0.29434,-2.5123
13.83,-0.37664,-2.6893
13.517,-0.37993,-1.1831
12.839,-0.36536,-0.67315
10.858,-0.32794,-2.9107
10.884,-0.33255,-2.5141
13.595,-0.41774,-2.6438
13.954,-0.44095,-1.2214
12.81,-0.40928,-0.67168
10.849,-0.36558,-2.9086
10.885,-0.36871,-2.5145
13.513,-0.46244,-2.6282
12.868,-0.45387,-0.67482
10.842,-0.40134,-2.9071
10.896,-0.40714,-2.5172
13.48,-0.50607,-2.6221
12.955,-0.49768,-1.1342
14.413,-0.56376,-0.25177
10.837,-0.43903,-2.906
10.879,-0.44453,-2.5136
13.513,-0.55457,-2.629
13.815,-0.58384,-0.72464
10.837,-0.47694,-2.9065
10.867,-0.48207,-2.5114
13.631,-0.60707,-2.6522
12.951,-0.58811,-1.1342
12.655,-0.5791,-0.66393
14.101,-0.65018,-0.24639
10.845,-0.51522,-2.9091
10.873,-0.52038,-2.5132
13.492,-0.64805,-2.6255
12.965,-0.63409,-1.1356
12.996,-0.64018,-0.68194
14.518,-0.72021,-0.25372
10.839,-0.55288,-2.9081
10.871,-0.55833,-2.5132
13.315,-0.68615,-2.5916
14.22,-0.74524,-1.2458
13.477,-0.711,-0.70727
14.667,-0.77894,-0.25638
10.825,-0.59008,-2.905
10.877,-0.5967,-2.515
13.324,-0.73327,-2.5939
13.306,-0.74394,-1.166
13.051,-0.73426,-0.68508
14.311,-0.81013,-0.2502
10.825,-0.62797,-2.9055
10.873,-0.63455,-2.5145
13.361,-0.78207,-2.6015
13.025,-0.77384,-1.1416
13.362,-0.79852,-0.70151
14.158,-0.84861,-0.24758
10.827,-0.66599,-2.9065
10.851,-0.6694,-2.51
13.258,-0.8225,-2.582
14.052,-0.8841,-1.2319
13.427,-0.8471,-0.70507
10.827,-0.70202,-2.9071
10.865,-0.70829,-2.5136
13.196,-0.86262,-2.5706
14.123,-0.93557,-1.2383
13.506,-0.8994,-0.70936
14.404,-0.96426,-0.25198
10.816,-0.73928,-2.905
10.862,-0.74621,-2.5136
13.213,-0.91003,-2.5744
14.106,-0.98389,-1.2371
14.442,-1.0175,-0.25271
10.802,-0.7762,-2.9019
10.857,-0.78398,-2.5132
13.217,-0.95671,-2.5759
13.848,-1.0145,-1.2148
13.543,-0.99689,-0.71166
14.807,-1.0926,-0.25917
10.807,-0.81448,-2.9039
13.474,-1.0155,0.23585
10.855,-0.81998,-2.5132
13.232,-1.0042,-2.5794
13.57,-1.0418,-1.1907
10.812,-0.85092,-2.906
10.846,-0.85741,-2.5118
13.224,-1.0477,-2.5786
13.729,-1.1046,-0.72182
14.917,-1.2054,-0.26123
10.795,-0.88943,-2.9024
13.514,-1.1134,0.23669
10.837,-0.89478,-2.5105
13.271,-1.1004,-2.5885
13.741,-1.1515,-1.2064
13.858,-1.1661,-0.72883
14.923,-1.2583,-0.2614
10.786,-0.92661,-2.9008
10.826,-0.93382,-2.5087
13.254,-1.1456,-2.5858
10.766,-0.96271,-2.8962
10.827,-0.97196,-2.5096
13.224,-1.1895,-2.5809
13.675,-1.2397,-1.6859
12.667,-1.1506,-1.1128
13.48,-1.2291,-0.70936
12.838,-1.1752,-0.22503
10.764,-1.0005,-2.8967
10.817,-1.0092,-2.5082
13.243,-1.2379,-2.5855
12.776,-1.2055,-1.1227
12.998,-1.231,-0.68424
13.798,-1.3116,-0.24193
10.763,-1.0382,-2.8972
12.514,-1.2093,0.21945
10.806,-1.0462,-2.5064
13.237,-1.2839,-2.5851
13.958,-1.3661,-1.227
12.956,-1.2726,-0.68225
13.085,-1.2899,-0.2295
10.763,-1.0762,-2.8983
10.802,-1.0839,-2.5064
13.244,-1.3313,-2.5874
13.806,-1.3999,-1.2141
12.985,-1.3258,-0.22782
10.738,-1.1115,-2.8926
13.38,-1.3874,0.2348
10.794,-1.1212,-2.5055
13.235,-1.3771,-2.5866
13.775,-1.4454,-1.2118
12.351,-1.3003,-0.65085
12.954,-1.3684,-0.22737
10.727,-1.1444,-2.8905
10.801,-1.1562,-2.5078
13.497,-1.4471,-2.6385
13.784,-1.4926,-1.213
13.639,-1.4793,-0.71899
12.977,-1.4121,-0.22786
10.718,-1.1833,-2.8895
10.762,-1.19,-2.4997
13.468,-1.494,-2.6339
12.967,-1.4499,-1.1416
12.471,-1.3988,-0.65765
12.917,-1.4511,-0.22688
10.72,-1.2214,-2.891
10.742,-1.2277,-2.4961
13.338,-1.5267,-2.6095
14.3,-1.6495,-1.2594
12.456,-1.4412,-0.65713
13.343,-1.5462,-0.23446
10.716,-1.2588,-2.891
10.738,-1.2633,-2.4961
12.996,-1.5519,-0.22845
10.698,-1.2927,-2.8874
10.743,-1.3019,-2.4983
13.004,-1.599,-0.2287
10.668,-1.3288,-2.8807
10.73,-1.3384,-2.4965
14.126,-1.7745,-1.7481
13.393,-1.6871,-1.181
13.528,-1.7114,-0.23802
10.662,-1.3658,-2.8801
10.704,-1.375,-2.4916
14.218,-1.839,-1.7603
13.47,-1.7446,-1.1883
12.603,-1.6368,-0.66603
13.211,-1.7181,-0.23254
10.665,-1.404,-2.8822
10.686,-1.4087,-2.4884
14.417,-1.9083,-2.3033
14.326,-1.9013,-1.7744
13.503,-1.7969,-1.1918
12.736,-1.6971,-0.67335
10.648,-1.4378,-2.8791
14.643,-1.9797,0.25791
10.675,-1.4452,-2.4871
14.472,-1.9619,-2.8389
14.389,-1.9557,-2.2999
12.716,-1.7396,-0.67262
10.624,-1.4742,-2.8739
10.678,-1.4836,-2.4889
14.424,-2.0092,-2.8308
14.387,-2.0092,-2.3008
14.403,-2.0139,-1.7856
14.029,-1.9666,-1.2394
13.537,-1.9048,-0.23861
10.607,-1.5096,-2.8708
10.657,-1.5205,-2.4853
14.435,-2.0621,-2.8343
14.407,-2.0684,-1.7871
14.264,-2.0504,-1.2608
12.873,-1.8551,-0.68162
10.59,-1.545,-2.8677
10.631,-1.5527,-2.4803
14.48,-2.1201,-2.8446
14.263,-2.1011,-1.2613
12.786,-1.8858,-0.67733
13.173,-1.9475,-0.23243
10.585,-1.5801,-2.8677
13.379,-1.9996,0.23613
10.621,-1.5893,-2.4794
14.549,-2.1848,-2.3302
13.154,-1.98,-1.6333
12.183,-1.836,-1.0779
12.892,-1.9474,-0.6833
13.427,-2.0307,-0.23704
10.578,-1.6167,-2.8672
10.61,-1.6236,-2.4781
14.55,-2.2343,-2.3315
12.021,-1.8546,-1.0642
12.392,-1.9139,-0.65713
14.13,-2.1874,-0.24957
10.557,-1.6494,-2.8631
10.597,-1.6594,-2.4763
14.536,-2.2841,-2.3306
12.924,-2.0355,-1.6065
13.469,-2.1261,-1.193
12.409,-1.9609,-0.65839
13.549,-2.146,-0.23945
10.534,-1.6853,-2.8584
10.583,-1.6951,-2.4745
13.031,-2.0989,-1.6206
13.576,-2.1915,-1.2031
14.156,-2.2903,-0.75154
13.644,-2.2099,-0.24126
10.522,-1.7212,-2.8568
14.696,-2.4066,0.25994
10.565,-1.732,-2.4718
12.776,-2.1059,-1.5899
13.344,-2.2019,-1.1832
13.68,-2.2647,-0.24203
10.503,-1.7557,-2.8532
10.55,-1.7655,-2.4695
12.873,-2.1658,-1.6028
13.322,-2.2461,-1.182
10.501,-1.7911,-2.8543
10.528,-1.7996,-2.4659
13.388,-2.3028,-1.1885
10.47,-1.8235,-2.8475
10.515,-1.8332,-2.4641
10.444,-1.8548,-2.8424
10.51,-1.8702,-2.4646
14.494,-2.6001,-0.77175
13.551,-2.4357,-0.24032
10.438,-1.8912,-2.8424
14.167,-2.5694,0.25131
10.477,-1.902,-2.4583
12.998,-2.3715,-1.6223
13.953,-2.5483,-1.2409
14.202,-2.5989,-0.75667
12.653,-2.32,-0.22454
10.427,-1.927,-2.8413
13.939,-2.5785,0.24744
10.46,-1.9368,-2.456
13.672,-2.5463,-1.2167
10.405,-1.9605,-2.8372
10.444,-1.9715,-2.4538
12.997,-2.4652,-1.6243
13.68,-2.5973,-1.2183
13.662,-2.5987,-0.72883
10.387,-1.9964,-2.8341
14.023,-2.6978,0.24926
10.408,-2.0043,-2.447
14.292,-2.7651,-1.7873
13.378,-2.5955,-0.71418
13.861,-2.6918,-0.24646
10.344,-2.0256,-2.8242
10.405,-2.0395,-2.4479
12.43,-2.4477,-1.5555
12.708,-2.507,-1.1332
13.734,-2.7169,-0.24437
10.327,-2.058,-2.8216
13.706,-2.7337,0.24395
10.379,-2.072,-2.4434
13.387,-2.6847,-1.6764
13.668,-2.7436,-1.2197
12.256,-2.4645,-0.65514
10.305,-2.091,-2.8175
10.351,-2.104,-2.4385
12.568,-2.5662,-1.575
13.647,-2.7889,-1.2186
10.288,-2.125,-2.8149
10.328,-2.1369,-2.4349
12.587,-2.6157,-1.5785
13.74,-2.858,-1.2279
14.08,-2.9337,-0.75374
10.271,-2.1589,-2.8123
12.725,-2.677,0.22699
10.324,-2.1738,-2.4358
13.728,-2.9055,-1.2277
10.249,-2.1915,-2.8082
10.297,-2.2057,-2.4313
10.226,-2.2222,-2.804
10.269,-2.2353,-2.4263
12.66,-2.765,-1.5911
12.838,-2.8086,-1.1498
10.202,-2.2523,-2.7994
10.25,-2.2668,-2.4236
12.511,-2.7782,-1.5736
12.807,-2.8464,-1.1478
14.041,-3.1256,-0.75385
10.181,-2.285,-2.7958
10.225,-2.2987,-2.4196
12.358,-2.7895,-1.5555
14.061,-3.1764,-1.2611
14.156,-3.2032,-0.76065
13.868,-3.1431,-0.24821
10.15,-2.3153,-2.7896
10.206,-2.3318,-2.4169
13.145,-3.0155,-1.656
12.807,-2.9402,-1.1496
13.999,-3.219,-0.7528
13.795,-3.1771,-0.24709
10.129,-2.3477,-2.7859
10.196,-2.3669,-2.4164
13.119,-3.0578,-1.654
13.677,-3.1903,-1.2287
14.371,-3.3574,-0.77342
14.438,-3.3784,-0.25882
10.096,-2.3773,-2.7792
10.153,-2.3945,-2.4083
13.079,-3.0967,-1.6504
13.639,-3.2316,-1.2263
14.231,-3.3771,-0.76651
10.074,-2.4094,-2.7756
10.124,-2.4249,-2.4034
12.966,-3.1177,-1.6374
14.382,-3.4661,-0.7753
10.055,-2.4418,-2.7725
10.096,-2.4556,-2.3989
12.859,-3.1394,-1.6252
14.449,-3.5357,-0.7796
10.024,-2.4713,-2.7663
10.071,-2.4866,-2.3948
12.977,-3.2163,-1.6416
13.991,-3.4702,-1.2611
14.373,-3.5702,-0.77614
9.9925,-2.5007,-2.76
10.049,-2.5185,-2.3917
14.302,-3.6057,-0.773
9.9706,-2.5322,-2.7564
10.02,-2.5465,-2.3867
14.271,-3.6482,-0.77196
9.949,-2.5619,-2.7528
9.9936,-2.5771,-2.3827
14.185,-3.6789,-0.76798
9.9251,-2.5927,-2.7487
9.9713,-2.6085,-2.3795
12.509,-3.284,-1.588
13.541,-3.5575,-1.2249
13.983,-3.6839,-0.2524
9.8973,-2.6224,-2.7435
9.9396,-2.6373,-2.3741
13.617,-3.6283,-1.2329
14.091,-3.7599,-0.76431
9.8545,-2.6479,-2.7342
9.919,-2.6689,-2.3714
12.43,-3.3562,-1.5809
13.722,-3.7075,-1.2435
13.941,-3.772,-0.75688
9.8228,-2.6762,-2.728
9.8852,-2.6969,-2.3656
13.81,-3.7833,-1.2528
13.997,-3.8396,-0.76065
9.7892,-2.7038,-2.7212
9.8419,-2.722,-2.3575
12.737,-3.5348,-1.6231
9.7704,-2.7353,-2.7186
9.8042,-2.7485,-2.3507
9.7329,-2.7615,-2.7109
9.7852,-2.78,-2.3485
13.394,-3.8179,-1.7101
13.253,-3.7802,-1.2057
9.6972,-2.788,-2.7036
9.7604,-2.8098,-2.3449
13.046,-3.7705,-1.1881
9.6726,-2.8175,-2.6995
9.7244,-2.8362,-2.3386
13.004,-3.8076,-1.1855
9.6423,-2.8452,-2.6938
9.692,-2.8635,-2.3332
9.6207,-2.8772,-2.6907
9.6577,-2.8901,-2.3273
12.796,-3.8413,-1.6404
9.5774,-2.9007,-2.6814
9.6246,-2.9187,-2.3219
12.824,-3.8986,-1.6457
9.5271,-2.92,-2.67
9.5888,-2.9426,-2.3156
14.027,-4.3072,-2.8522
12.786,-3.9335,-1.6426
12.668,-3.902,-1.1597
9.4989,-2.9458,-2.6648
9.5436,-2.9634,-2.3071
13.994,-4.3479,-2.8484
12.848,-4.0018,-1.6523
12.602,-3.9274,-1.1548
9.4719,-2.9738,-2.6601
9.5035,-2.9873,-2.2999
13.964,-4.392,-2.8453
12.876,-4.0597,-1.6577
9.4412,-3.0004,-2.6544
9.4763,-3.0152,-2.2959
13.924,-4.433,-2.8404
12.897,-4.1161,-1.6623
9.3995,-3.0233,-2.6456
9.4416,-3.0405,-2.29
13.88,-4.4725,-2.8347
12.894,-4.1648,-1.6638
9.3576,-3.0459,-2.6368
9.4235,-3.071,-2.2882
13.857,-4.5185,-2.8331
13.008,-4.2517,-1.6803
9.3249,-3.0713,-2.6306
9.3702,-3.0898,-2.2779
14.208,-4.6879,0.7841
13.824,-4.5613,-2.8297
12.744,-4.2148,-1.6482
9.2885,-3.0953,-2.6234
9.3131,-3.1071,-2.2666
14.12,-4.7134,0.78012
13.795,-4.6052,-2.827
14.168,-4.7321,1.3068
12.62,-4.2227,-1.634
12.589,-4.2145,-1.1614
9.252,-3.119,-2.6161
9.2819,-3.1327,-2.2617
14.026,-4.7365,0.77583
13.755,-4.6451,-2.8221
14.098,-4.7637,1.3019
12.948,-4.3826,-1.6784
9.2246,-3.1457,-2.6115
9.2635,-3.1626,-2.2599
13.945,-4.7634,0.77227
13.717,-4.6855,-2.8175
14.012,-4.7891,1.2955
14.077,-4.8169,1.8268
12.966,-4.4393,-1.6828
9.1661,-3.1615,-2.598
9.2377,-3.1898,-2.2563
13.868,-4.7912,0.76892
13.667,-4.7218,-2.8106
13.916,-4.8106,1.2882
13.716,-4.7442,-2.2986
13.996,-4.8439,1.8185
9.1294,-3.1846,-2.5908
9.221,-3.2201,-2.2549
13.77,-4.8089,0.76442
13.576,-4.7436,-2.7954
13.833,-4.8361,1.2821
13.647,-4.7737,-2.2899
13.906,-4.8672,1.809
13.75,-4.8151,-1.7888
13.773,-4.826,-1.2768
13.856,-4.8605,-0.76955
13.968,-4.9026,-0.2584
9.1,-3.21,-2.5856
13.972,-4.9285,0.25861
9.2084,-3.25,-2.2545
13.691,-4.835,0.76096
13.511,-4.774,-2.7854
13.769,-4.8678,1.2777
13.83,-4.8921,1.8012
13.756,-4.8741,-1.2768
13.827,-4.9017,-0.76882
13.898,-4.9326,-0.25742
9.0602,-3.2298,-2.5773
13.943,-4.9732,0.2584
9.2062,-3.2854,-2.2567
13.611,-4.8599,0.75741
13.419,-4.7917,-2.7698
13.704,-4.896,1.2732
13.736,-4.9129,1.7912
9.0107,-3.2476,-2.5664
9.2002,-3.3195,-2.2581
13.53,-4.8843,0.75385
13.347,-4.8185,-2.7583
13.614,-4.9174,1.2664
13.669,-4.9426,1.7847
8.9594,-3.2645,-2.5551
9.1922,-3.353,-2.259
13.447,-4.9075,0.75018
12.895,-4.7062,-2.6683
13.529,-4.9403,1.2601
12.919,-4.7201,-2.1785
13.584,-4.9657,1.7759
8.9298,-3.2891,-2.5499
9.1713,-3.3817,-2.2567
13.372,-4.933,0.74694
12.81,-4.726,-2.6542
13.437,-4.9599,1.2531
12.877,-4.7556,-2.1741
13.496,-4.987,1.7666
12.95,-4.7876,-1.6952
13.026,-4.8186,-1.2151
13.081,-4.8439,-0.73103
13.149,-4.8746,-0.24479
8.8839,-3.3074,-2.5401
13.179,-4.9092,0.24549
9.1558,-3.4123,-2.2558
13.277,-4.951,0.74265
12.737,-4.7495,-2.6423
13.367,-4.9873,1.2482
12.786,-4.7729,-2.1616
13.4,-5.0049,1.7564
12.877,-4.812,-1.6879
12.987,-4.8556,-1.213
12.991,-4.8622,-0.72695
13.102,-4.9092,-0.24423
8.8524,-3.3309,-2.5344
13.117,-4.9382,0.24465
9.1511,-3.447,-2.2576
13.197,-4.9734,0.73909
12.669,-4.7745,-2.6316
13.288,-5.0107,1.2425
12.723,-4.8001,-2.1538
13.333,-5.0327,1.7498
12.793,-4.8316,-1.6791
13.391,-5.0602,2.2674
12.882,-4.8678,-1.2048
12.925,-4.8892,-0.72423
13.513,-5.1141,3.3356
13.022,-4.9308,-0.24304
8.7974,-3.3453,-2.5219
13.042,-4.9619,0.24357
9.1354,-3.4775,-2.2567
13.131,-5.001,0.73637
12.586,-4.7935,-2.6179
13.208,-5.0329,1.2366
12.651,-4.8233,-2.1444
13.248,-5.0537,1.741
12.724,-4.8565,-1.6723
13.326,-5.0886,2.2592
12.822,-4.8964,-1.2008
13.403,-5.1206,2.7889
12.861,-4.9165,-0.72161
13.466,-5.1501,3.3284
12.92,-4.9441,-0.24147
13.497,-5.1674,3.8725
8.7316,-3.3552,-2.5064
12.957,-4.9816,0.24231
9.145,-3.5178,-2.2621
13.048,-5.0217,0.7327
12.525,-4.8205,-2.6087
13.123,-5.0532,1.2303
12.566,-4.8412,-2.1328
13.179,-5.08,1.7342
12.65,-4.8787,-1.6647
13.243,-5.1102,2.2483
12.733,-4.9132,-1.194
13.31,-5.1384,2.7732
12.773,-4.934,-0.71763
13.387,-5.1739,3.3135
12.845,-4.9668,-0.24039
13.434,-5.1971,3.8595
8.6946,-3.3759,-2.4992
12.871,-5,0.24102
9.1163,-3.5433,-2.2581
12.982,-5.0484,0.72998
12.439,-4.8372,-2.5942
13.063,-5.0824,1.2263
12.49,-4.8621,-2.1228
13.094,-5.1,1.7254
12.577,-4.9012,-1.6574
13.17,-5.1348,2.2389
12.664,-4.9373,-1.1892
13.233,-5.162,2.761
12.693,-4.9538,-0.71407
13.319,-5.2007,3.3009
12.781,-4.9934,-0.23952
13.354,-5.22,3.8419
8.6558,-3.3956,-2.4914
12.799,-5.0237,0.24001
9.0967,-3.5723,-2.2563
12.89,-5.0644,0.7258
12.389,-4.8676,-2.5874
12.969,-5.0981,1.2191
12.429,-4.8883,-2.1153
13.008,-5.1188,1.7164
12.499,-4.9211,-1.6494
13.103,-5.1612,2.2304
12.598,-4.9625,-1.1846
13.177,-5.193,2.753
12.629,-4.9798,-0.71146
13.226,-5.2178,3.2825
12.706,-5.0152,-0.23843
13.266,-5.2389,3.8217
8.6187,-3.4159,-2.4841
12.728,-5.047,0.23899
9.0823,-3.6033,-2.2558
12.81,-5.0821,0.72224
12.308,-4.8855,-2.574
12.893,-5.1205,1.2137
12.353,-4.9083,-2.1053
12.933,-5.1414,1.7089
12.432,-4.9449,-1.6428
13.012,-5.1755,2.2179
12.525,-4.9844,-1.1794
13.084,-5.2092,2.7373
12.55,-4.9995,-0.708
13.137,-5.2358,3.2649
12.635,-5.0359,-0.23742
13.195,-5.2614,3.8062
8.5727,-3.4323,-2.4743
12.666,-5.0713,0.23816
8.6145,-3.4508,-2.1424
12.499,-5.0094,0.7057
12.242,-4.9087,-2.5637
12.794,-5.1328,1.2061
12.294,-4.9323,-2.0981
12.866,-5.1643,1.7023
12.346,-4.958,-1.6335
12.917,-5.1899,2.2048
12.454,-5.0065,-1.1743
13.013,-5.2313,2.7263
12.467,-5.0142,-0.70423
13.053,-5.2525,3.2483
12.549,-5.0523,-0.23613
13.115,-5.2829,3.7886
8.5201,-3.4441,-2.4624
12.584,-5.0893,0.23693
12.486,-5.0523,0.70591
8.6367,-3.4965,-1.8112
12.712,-5.1491,1.2
12.215,-4.95,-2.0875
12.787,-5.1846,1.6942
8.6953,-3.5273,-1.1522
12.854,-5.2142,2.197
12.373,-5.0216,-1.1682
12.922,-5.2472,2.711
12.411,-5.0419,-0.70203
12.995,-5.2818,3.2384
12.482,-5.0736,-0.23519
13.033,-5.3002,3.77
8.4758,-3.4606,-2.4531
12.502,-5.1045,0.23571
8.5114,-3.4769,-2.1226
12.487,-5.1034,0.70695
8.5772,-3.5073,-1.8012
12.639,-5.1708,1.1947
8.6204,-3.5267,-1.4752
12.717,-5.2052,1.6872
8.6579,-3.5456,-1.1487
12.783,-5.2373,2.1879
8.694,-3.5639,-0.82205
12.854,-5.2692,2.7003
8.7276,-3.5794,-0.49437
12.919,-5.3012,3.224
12.44,-5.1073,-0.23473
12.961,-5.3236,3.7544
8.4303,-3.4747,-2.4433
12.432,-5.1268,0.23473
8.4632,-3.4917,-2.1136
12.511,-5.1645,0.70936
8.5328,-3.5222,-1.7944
12.572,-5.1921,1.19
8.5825,-3.5462,-1.4708
12.632,-5.2222,1.6784
8.5996,-3.5568,-1.1426
12.739,-5.2713,2.1835
8.6545,-3.5813,-0.81944
12.774,-5.2885,2.6874
8.691,-3.5999,-0.493
12.843,-5.3224,3.2096
12.373,-5.13,-0.23379
12.892,-5.3481,3.7399
8.3896,-3.4923,-2.435
12.365,-5.1494,0.23379
8.4239,-3.51,-2.1069
12.453,-5.1912,0.70706
8.4843,-3.5369,-1.7867
12.504,-5.2153,1.1853
8.539,-3.5632,-1.4655
12.568,-5.2472,1.6723
8.5432,-3.5684,-1.1368
12.664,-5.2921,2.1738
8.6089,-3.5976,-0.8163
12.701,-5.3103,2.6759
8.6489,-3.6179,-0.49133
12.763,-5.3416,3.1943
12.307,-5.153,-0.23288
12.82,-5.3707,3.7244
8.3346,-3.5036,-2.4225
12.302,-5.1739,0.23295
8.3739,-3.5235,-2.0974
12.377,-5.2106,0.70381
8.4339,-3.5505,-1.7787
12.429,-5.2349,1.1799
8.4883,-3.5769,-1.4589
12.497,-5.2686,1.6652
8.5087,-3.589,-1.1339
12.569,-5.304,2.1607
8.5577,-3.6114,-0.81264
12.642,-5.3378,2.6675
8.6013,-3.6333,-0.48934
12.678,-5.3581,3.1777
12.243,-5.1765,-0.23201
12.739,-5.3891,3.7063
8.2868,-3.5175,-2.4122
12.222,-5.1903,0.23177
8.3293,-3.539,-2.0893
12.31,-5.2327,0.70099
8.3853,-3.5645,-1.7711
12.35,-5.2525,1.1742
8.4322,-3.5879,-1.4514
12.435,-5.2936,1.6594
8.4596,-3.6031,-1.129
12.514,-5.3324,2.1544
8.5011,-3.6225,-0.80846
12.568,-5.358,2.6557
8.5647,-3.6531,-0.48798
12.609,-5.3809,3.1651
12.173,-5.1972,-0.23103
12.653,-5.4047,3.6866
8.2443,-3.5335,-2.4034
12.161,-5.2148,0.23097
8.2685,-3.5473,-2.0772
12.246,-5.2538,0.69837
8.3421,-3.5806,-1.7646
12.273,-5.2704,1.1686
8.3869,-3.6033,-1.4458
12.339,-5.304,1.6491
8.4214,-3.6216,-1.1256
12.445,-5.352,2.1457
8.4536,-3.6372,-0.80514
12.471,-5.3685,2.6393
8.4987,-3.6601,-0.48495
12.551,-5.4079,3.1552
12.097,-5.2122,-0.22992
12.574,-5.4206,3.669
8.1982,-3.5477,-2.3936
12.078,-5.2265,0.22971
8.2299,-3.5631,-2.0704
12.18,-5.2759,0.69565
8.2953,-3.5949,-1.7574
12.216,-5.2966,1.1649
8.3423,-3.617,-1.4401
12.265,-5.3204,1.6416
8.373,-3.6337,-1.1207
12.385,-5.3773,2.1385
8.4098,-3.6532,-0.80218
12.414,-5.3926,2.6309
8.4498,-3.6723,-0.48285
12.474,-5.4239,3.1403
12.047,-5.2409,-0.22932
12.515,-5.4467,3.6571
8.1651,-3.5656,-2.3873
12.017,-5.2502,0.22891
8.1888,-3.5793,-2.0633
12.105,-5.2936,0.6924
8.254,-3.6112,-1.7512
12.155,-5.3179,1.1607
8.2934,-3.6302,-1.4339
12.192,-5.3393,1.6343
8.3184,-3.6446,-1.1151
12.295,-5.3896,2.1263
8.3678,-3.6697,-0.79939
12.344,-5.416,2.6202
8.4107,-3.692,-0.48139
12.378,-5.4337,3.121
11.961,-5.2531,-0.22803
12.434,-5.4632,3.639
8.1131,-3.5783,-2.376
11.954,-5.2748,0.22807
8.1489,-3.5975,-2.0565
12.034,-5.3153,0.68947
8.2012,-3.624,-1.7428
12.084,-5.3399,1.1559
8.2548,-3.6494,-1.4295
12.129,-5.3647,1.6284
8.2705,-3.6598,-1.1105
12.221,-5.4106,2.1169
8.3251,-3.6875,-0.7966
12.275,-5.4397,2.6099
8.3606,-3.7067,-0.47929
12.31,-5.4577,3.1088
11.887,-5.2726,-0.22699
12.378,-5.493,3.6286
8.0611,-3.5907,-2.3646
11.911,-5.308,0.22761
8.1001,-3.6115,-2.0475
11.97,-5.337,0.68686
8.1508,-3.6358,-1.7348
12.014,-5.3614,1.151
8.1908,-3.6571,-1.4207
12.068,-5.3905,1.6228
8.228,-3.6771,-1.1066
12.148,-5.4291,2.1075
8.2686,-3.697,-0.79242
12.192,-5.4537,2.5961
8.3148,-3.7211,-0.47741
12.253,-5.4861,3.0994
11.825,-5.2945,-0.22615
12.288,-5.5046,3.6079
8.0186,-3.6054,-2.3558
8.6103,-3.8714,0.16479
8.049,-3.6207,-2.0376
11.913,-5.3615,0.68466
8.1112,-3.6521,-1.7291
11.944,-5.3804,1.1461
8.1535,-3.6729,-1.4164
11.975,-5.397,1.6128
8.1905,-3.693,-1.1032
12.068,-5.4438,2.0968
8.2284,-3.7135,-0.78981
12.113,-5.4666,2.5832
8.2678,-3.7331,-0.47542
12.171,-5.4978,3.0832
12.216,-5.5236,3.5924
7.9837,-3.6216,-2.349
8.553,-3.8816,0.16395
8.0114,-3.6375,-2.0313
11.837,-5.3746,0.68131
8.0758,-3.6685,-1.7242
11.874,-5.3961,1.141
8.1154,-3.6899,-1.412
11.926,-5.4248,1.6087
8.1348,-3.7004,-1.0973
12.008,-5.465,2.0897
8.1979,-3.7325,-0.78806
8.2166,-3.7445,-0.47322
12.111,-5.5195,3.0728
8.6263,-3.933,-0.16548
12.149,-5.5416,3.5779
7.9471,-3.6368,-2.3418
8.5219,-3.9016,0.1636
7.971,-3.6511,-2.0241
11.783,-5.3971,0.67922
8.0315,-3.6805,-1.7173
11.807,-5.413,1.1363
8.0708,-3.7019,-1.4063
11.855,-5.4403,1.6016
8.0972,-3.7158,-1.0939
11.922,-5.4735,2.0778
8.1547,-3.7456,-0.7851
11.986,-5.5079,2.5641
8.1715,-3.7567,-0.47134
12.038,-5.5344,3.0589
8.5223,-3.9198,-0.16374
12.088,-5.5625,3.5655
7.9209,-3.6566,-2.3377
8.4653,-3.9097,0.16276
7.9482,-3.6726,-2.0214
8.652,-3.9978,0.49949
7.9854,-3.6915,-1.71
11.743,-5.4312,1.132
8.0406,-3.7204,-1.4032
11.794,-5.4596,1.5958
8.0524,-3.7276,-1.0895
11.854,-5.4897,2.069
8.097,-3.7516,-0.78074
11.916,-5.5237,2.553
8.1282,-3.7695,-0.46956
11.967,-5.5497,3.0454
8.4839,-3.9363,-0.16325
12.015,-5.5773,3.5494
7.9263,-3.691,-2.3428
8.4668,-3.9445,0.16304
7.9625,-3.7113,-2.0282
8.5952,-4.0062,0.49698
8.0033,-3.732,-1.7165
